ply
format ascii 1.0
element vertex 934
property float x
property float y
property float z
property uchar red
property uchar green
property uchar blue
property float weight
end_header
-0.06752957 -0.14839292 -0.2397774 0 0 212 0.08478306
0.2368387 0.055289745 -0.26749533 0 120 255 0.24418391
0.4313343 -0.28435764 -0.40383226 162 255 94 0.5354613
-0.29234836 0.107944004 0.3767554 170 255 86 0.54356253
-0.29234836 -0.04923523 0.21967411 66 255 190 0.43934506
0.17013939 0.055289745 -0.018739207 0 176 255 0.3003958
0.33317563 -0.021928664 0.3779503 0 0 128 0.0
-0.29234836 0.68859035 -0.2742926 128 0 0 1.0
-0.19462062 0.5927824 -0.18698601 255 20 0 0.858742
0.41468394 -0.14839292 -0.028259285 0 120 255 0.24701378
-0.2481564 0.14216535 -0.3182103 0 0 240 0.11087144
-0.14400358 0.03532892 0.13967411 0 72 255 0.19647954
0.46806297 -0.6125849 -0.40383226 128 0 0 1.0
-0.18758833 0.7192858 0.15795033 128 0 0 1.0
0.19826867 -0.14839292 -0.015742145 255 52 0 0.8270717
-0.18758833 0.15391853 -0.3818342 255 56 0 0.822426
0.3737633 -0.14839292 -0.08044342 0 176 255 0.29842758
-0.23608978 -0.7099796 0.3779503 128 0 0 1.0
-0.064395376 0.055289745 0.041456677 128 0 0 1.0
0.2244391 -0.14839292 0.14284748 114 255 142 0.48698157
-0.19027197 0.12363451 0.29614815 0 60 255 0.18629415
0.4164665 -0.14839292 0.09205412 0 0 140 0.0144708315
-0.29234836 -0.6651216 -0.33423382 128 0 0 1.0
0.20142245 -0.14839292 0.1326222 162 255 94 0.53343356
-0.005159341 -0.14839292 0.0038856692 54 255 202 0.43016014
-0.29234836 -0.013466374 -0.17027691 0 0 160 0.034661055
-0.2882935 -0.7187553 -0.27613392 114 255 142 0.4883566
-0.18758833 0.78962857 -0.08761286 128 0 0 1.0
0.08808258 0.05393813 0.28492385 0 0 128 0.0
0.43290138 -0.3520364 0.2574214 136 0 0 0.99496126
-0.2048655 0.18763058 -0.13678034 0 0 132 0.005784625
-0.29234836 0.6098245 -0.29466477 128 0 0 1.0
-0.20968431 0.37254736 -0.3182103 255 248 0 0.63354343
0.500874 0.027944008 0.28766626 0 0 128 0.0
0.500874 -0.028197028 0.19842044 0 0 128 0.0
0.18477209 0.055289745 -0.26537976 0 156 255 0.2816574
-0.22893995 -0.43924502 0.2574214 0 0 128 0.0
-0.046589304 0.03532892 0.33219123 0 0 128 0.0
-0.18758833 0.69241023 -0.3009919 128 0 0 1.0
0.24056055 0.055289745 -0.104850866 0 0 128 0.0
-0.29234836 -0.21207558 -0.3842436 0 0 160 0.031594466
-0.28122202 0.64741504 0.32419908 128 0 0 1.0
0.500874 -0.055914953 -0.3437147 0 0 128 0.0
-0.28271076 -0.19436744 -0.40383226 0 0 172 0.043587003
-0.18758833 0.41822803 0.36292583 255 172 0 0.708899
-0.25275972 0.7353681 -0.029552136 128 0 0 1.0
-0.28788215 -0.5750335 0.3779503 198 255 58 0.5716296
0.4313343 -0.28435764 -0.40383226 128 0 0 1.0
-0.18602124 -0.7473155 0.26300418 160 0 0 0.9686655
-0.19497325 0.45863938 0.15840086 128 0 0 1.0
-0.27922398 0.68684703 -0.17840618 128 0 0 1.0
-0.020986965 -0.048863042 0.3779503 0 4 255 0.13137127
0.03550667 -0.14839292 0.14549194 0 0 128 0.0
0.09725006 0.055289745 -0.19638856 0 0 128 0.0
0.500874 -0.092643656 0.17395422 0 0 128 0.0
-0.25038952 0.10482941 0.18196599 0 160 255 0.28321376
0.41773978 0.055289745 0.053405747 0 0 168 0.040923115
0.500874 -0.6562479 0.37068292 255 12 0 0.86408406
0.041637916 0.055289745 -0.31184402 0 232 255 0.35327035
-0.26878324 0.21956007 -0.1396011 0 0 128 0.0
-0.25767648 -0.63507265 0.3779503 128 0 0 1.0
0.06841558 -0.14839292 -0.057720594 0 68 255 0.19230844
0.052352905 -0.14839292 0.34237733 128 0 0 1.0
0.2604626 -0.14839292 0.026490957 0 0 184 0.05808955
0.39883673 0.031293664 0.3779503 0 0 152 0.024092317
-0.29234836 -0.34521952 -0.28957173 0 176 255 0.3002926
0.44831765 0.041225106 -0.09182442 0 0 128 0.0
-0.2740134 0.1501771 0.16288665 0 0 128 0.0
0.44416484 -0.61321175 0.3779503 128 0 0 1.0
0.3713343 0.055289745 0.01264179 0 0 172 0.04659621
-0.26498303 0.7487471 0.13413052 128 0 0 1.0
0.42263693 -0.6567573 0.3610453 128 0 0 1.0
0.4439298 -0.29350552 0.2574214 0 96 255 0.22193725
0.32606494 -0.14839292 0.34425783 246 255 10 0.6162301
-0.26382732 -0.58110595 0.3779503 128 0 0 1.0
0.38998267 -0.14839292 -0.36851394 255 152 0 0.7277998
0.2951149 -0.0030843953 0.3779503 0 0 148 0.022874855
-0.29234836 -0.6627514 0.31164277 128 0 0 1.0
-0.2837881 0.03532892 0.037166763 0 0 128 0.0
0.48653507 -0.47573864 -0.40383226 226 255 30 0.59647965
0.42263693 -0.40222245 -0.3744493 128 0 0 1.0
0.500874 -0.44149768 -0.3615012 255 216 0 0.6657289
0.066280425 0.055289745 -0.15525243 0 0 128 0.0
-0.22208393 0.2595013 0.29614815 0 0 128 0.0
0.465634 -0.79197764 -0.33045322 128 0 0 1.0
0.500874 -0.29037136 0.30615795 0 92 255 0.21699359
0.500874 -0.016169606 -0.0154679045 0 0 128 0.0
-0.23748057 -0.30547416 0.2574214 0 0 128 0.0
0.14101107 0.055289745 0.06580535 0 84 255 0.20907766
-0.012661783 -0.14337823 0.3779503 0 180 255 0.30257097
-0.29234836 -0.59944093 0.29289642 42 255 214 0.41676626
0.500874 -0.17832436 0.31751934 0 0 156 0.031080857
-0.034228873 -0.14839292 -0.32034546 0 252 255 0.37600383
0.100364655 -0.14839292 0.15849881 0 36 255 0.1646822
0.4561139 -0.113485955 0.25730386 0 0 240 0.11291299
0.500874 -0.029411525 -0.1935874 0 0 128 0.0
0.24490923 -0.01524894 0.3779503 0 0 164 0.036357123
-0.21530624 0.44102922 -0.40383226 255 192 0 0.68646646
-0.10128078 0.055289745 0.06355266 255 4 0 0.8721807
0.42263693 -0.3551118 0.34243608 174 255 82 0.54733205
-0.0036314246 -0.14839292 -0.1277108 0 236 255 0.3607554
0.33987492 -0.14839292 0.058283314 255 208 0 0.67071897
0.015369555 -0.14839292 -0.13033567 0 92 255 0.21609531
0.37011978 -0.14839292 -0.10784792 0 0 208 0.08003492
0.37070745 -0.14839292 -0.39621225 255 172 0 0.7080015
-0.27070293 0.654134 0.16719614 128 0 0 1.0
-0.13514954 -0.0032802813 -0.40383226 66 255 190 0.4393068
0.500874 -0.43959758 -0.32845518 0 24 255 0.14991577
-0.28512016 -0.37101778 0.3779503 0 212 255 0.33383322
0.48291117 -0.71438706 -0.40383226 130 255 126 0.50352633
-0.03607021 0.055289745 0.19947822 0 0 140 0.01206503
-0.27256384 0.7332721 -0.19419463 128 0 0 1.0
-0.2841995 0.4517834 -0.014468884 128 0 0 1.0
0.42222556 0.055289745 0.194013 0 0 128 0.0
-0.10553152 -0.14839292 -0.056388568 255 164 0 0.7144821
-0.06752957 -0.14839292 -0.2397774 0 0 236 0.10804641
-0.2045129 0.65711147 -0.20169708 128 0 0 1.0
-0.20173132 0.16292931 -0.14024752 0 0 128 0.0
0.14310707 -0.14839292 0.0041795 0 0 236 0.10907977
-0.26349428 -0.79197764 -0.28396937 118 255 138 0.4908713
-0.29234836 0.5253583 -0.33866087 255 104 0 0.7748415
-0.29234836 -0.18727636 -0.35954234 0 0 224 0.09434973
-0.18102613 -0.5594605 -0.37527204 158 255 98 0.5321599
-0.27465984 0.19021627 -0.40383226 0 104 255 0.22958417
0.042676114 -0.14839292 0.1043362 0 180 255 0.30432224
-0.11608979 0.03532892 -0.37329358 255 88 0 0.7887242
-0.18758833 0.7192858 0.15795033 128 0 0 1.0
-0.29234836 -0.025415445 0.10253405 0 0 128 0.0
-0.21191742 -0.49011672 0.3779503 82 255 174 0.45829165
0.43188277 -0.30782482 0.3779503 0 252 255 0.37499878
-0.20719653 0.5243593 0.29614815 128 0 0 1.0
-0.26130036 -0.14839292 0.04049683 0 0 156 0.02958492
-0.19187823 0.7078656 -0.15971862 128 0 0 1.0
-0.19044828 -0.09830477 -0.40383226 0 64 255 0.1913914
-0.29234836 0.60055906 0.31150562 128 0 0 1.0
-0.09648157 -0.14839292 0.29732347 255 200 0 0.68097574
-0.29234836 -0.10516079 0.3445125 0 224 255 0.34780598
-0.28137872 0.7028705 -0.029512959 128 0 0 1.0
0.091726065 0.055289745 -0.33774018 255 216 0 0.6644409
0.15495819 0.055289745 -0.062774464 0 0 232 0.102211796
-0.23941985 -0.4474722 0.2574214 0 92 255 0.21812536
-0.28392527 0.28516242 -0.017015407 178 255 78 0.55046946
0.500874 -0.041047174 0.12905706 0 0 128 0.0
-0.25183904 -0.39902952 0.2574214 0 0 208 0.080752276
0.12492881 -0.14839292 0.30049682 140 0 0 0.9919158
-0.23270096 -0.66425973 -0.27613392 255 116 0 0.761135
-0.29234836 -0.63746244 -0.3587784 255 176 0 0.70272845
-0.18758833 0.638326 0.3044733 212 0 0 0.9186603
-0.19462062 0.5927824 -0.18698601 128 0 0 1.0
-0.22608 0.3734876 -0.05740718 128 0 0 1.0
-0.025159333 -0.14839292 0.27810702 0 0 128 0.0
-0.1150516 -0.14839292 -0.047456145 110 255 146 0.4843653
-0.1993611 0.7397951 0.113934636 128 0 0 1.0
-0.29234836 0.06749347 0.32272992 42 255 214 0.41618398
-0.052603025 -0.10731554 0.3779503 0 168 255 0.29286966
0.19826867 -0.14839292 -0.015742145 0 0 128 0.0
0.20755368 -0.14839292 0.060281355 0 108 255 0.23435123
0.43499738 -0.4563067 -0.27613392 0 148 255 0.273534
0.4636751 -0.79197764 -0.39721128 110 255 146 0.48580873
-0.2207519 -0.34480816 0.3779503 0 0 128 0.0022652806
0.42263693 -0.6771882 -0.38445908 126 255 130 0.50179726
0.4966232 -0.113485955 -0.24998307 0 0 204 0.07661465
-0.2202034 -0.6762088 -0.27613392 0 60 255 0.18822157
0.31407672 -0.0399698 -0.40383226 0 156 255 0.28069136
0.500874 -0.0014585387 0.24833226 0 0 128 0.0
0.038249083 0.055289745 -0.18430237 0 0 128 0.0
-0.29234836 -0.5580697 0.37440476 134 255 122 0.5067289
0.500874 0.034329902 0.29885137 0 0 128 0.0
0.20755368 -0.14839292 0.060281355 255 252 0 0.63018227
0.500874 -0.0546221 0.31391504 0 0 128 0.0
0.42263693 -0.5528199 0.32406196 150 255 106 0.5217222
-0.18758833 0.6847902 -0.24181461 255 24 0 0.85435313
-0.29234836 0.73575985 -0.2423631 128 0 0 1.0
0.38892487 -0.14839292 0.15027156 0 0 252 0.12481156
-0.28135914 0.42263547 0.3779503 118 255 138 0.49285868
-0.25681457 0.13511345 0.026236305 0 0 128 0.0
0.34420404 -0.14839292 -0.32688808 0 80 255 0.20441206
-0.29234836 -0.69113535 -0.30177546 182 255 74 0.55595756
-0.24353348 -0.4274918 0.3779503 0 28 255 0.15374182
0.23186319 -0.10735472 0.3779503 0 0 220 0.09219429
-0.19985081 0.37924665 -0.14271568 128 0 0 1.0
-0.21877344 0.2671409 0.024963044 255 212 0 0.66911626
0.42263693 -0.13160545 0.024610447 0 0 128 0.0
-0.22253446 0.7487471 -0.212177 128 0 0 1.0
0.4314714 -0.28849086 0.2574214 0 0 128 0.0
-0.18858734 -0.6078836 0.3779503 14 255 242 0.391808
0.4418338 -0.66741353 0.3779503 128 0 0 1.0
-0.27448353 0.19060805 0.117734835 0 48 255 0.17500615
-0.016461981 -0.009293994 -0.40383226 0 116 255 0.23944974
0.21272509 -0.14839292 -0.06073725 0 0 128 0.0
-0.21675582 0.35401648 -0.053489454 128 0 0 1.0
-0.21054623 0.7385414 0.019321516 128 0 0 1.0
0.14101107 0.055289745 0.06580535 0 0 128 0.0
-0.26100653 0.78367364 0.0067260223 128 0 0 1.0
-0.18758833 0.5982672 0.3404968 255 32 0 0.84436613
-0.2274512 0.31683728 -0.40383226 0 112 255 0.23918287
-0.29234836 0.38665116 -0.32261774 0 152 255 0.2781623
-0.23891056 -0.5253175 0.3779503 6 255 250 0.38190967
-0.19540419 0.31544647 -0.40383226 0 244 255 0.3684931
-0.29234836 0.006886221 0.26300418 0 60 255 0.18581918
0.1101198 -0.14839292 -0.21139346 0 176 255 0.30054253
-0.29234836 -0.6651216 -0.33423382 128 0 0 1.0
0.43329316 -0.47144872 0.3779503 128 0 0 1.0
0.13799442 -0.14839292 -0.2078675 188 0 0 0.9421258
-0.0036314246 -0.14839292 -0.1277108 0 0 216 0.08678678
0.42263693 -0.19233023 -0.32394978 255 208 0 0.6706333
0.45497778 -0.21511182 -0.27613392 170 255 86 0.5420063
0.21944398 0.055289745 -0.0411682 0 0 128 0.0
0.24669176 -0.14839292 -0.25188318 232 0 0 0.90003985
0.500874 -0.5706652 -0.30328378 128 0 0 1.0
-0.24361183 -0.69554275 -0.40383226 128 0 0 1.0
-0.24899872 -0.37180132 0.3779503 236 0 0 0.89774525
-0.29234836 0.2886492 -0.3482985 0 0 200 0.07432094
0.2701394 -0.14839292 -0.11335233 98 255 158 0.47125813
-0.20533563 0.81078434 -0.09507614 128 0 0 1.0
-0.15556091 -0.14839292 -0.027142733 255 172 0 0.7072083
-0.24075188 -0.40743306 0.2574214 0 52 255 0.18014899
0.13462518 -0.14839292 0.060555596 0 184 255 0.3060774
-0.26419947 0.25701356 -0.40383226 0 176 255 0.2992415
0.23186319 -0.10735472 0.3779503 0 0 255 0.12921354
0.08616289 -0.14839292 0.0037877262 0 0 128 0.0
0.13779855 0.03532892 -0.39609474 255 208 0 0.67116725
0.24857229 0.055289745 0.24310213 0 0 128 0.0
0.42263693 -0.44590515 0.37387586 194 255 62 0.56846285
-0.22370978 -0.546865 0.2574214 255 140 0 0.7407201
0.42263693 -0.54253596 -0.39525244 128 0 0 1.0
-0.29234836 0.7003044 0.26010507 128 0 0 1.0
0.20755368 -0.14839292 0.060281355 122 255 134 0.49739334
-0.18758833 0.20571089 -0.35985577 0 0 208 0.080173284
-0.29234836 -0.6651216 -0.33423382 234 255 22 0.6041079
0.4865155 -0.5980697 0.3779503 255 112 0 0.7662683
0.500874 -0.055484 0.17650075 0 0 208 0.07931402
-0.18602124 -0.58108634 0.36533523 234 255 22 0.6049387
0.44001204 -0.69464165 -0.27613392 255 196 0 0.6856222
0.500874 -0.62807953 0.3146986 255 216 0 0.6629899
-0.19189782 0.7056325 0.13011487 212 0 0 0.91879
0.377681 -0.14839292 -0.21564418 0 112 255 0.23907004
-0.29234836 0.012586515 -0.3737049 0 144 255 0.26712102
-0.22602125 -0.23522936 -0.40383226 250 255 6 0.6228859
0.34020796 0.055289745 0.069664314 0 0 128 0.0
-0.20578617 0.58984405 -0.044106495 128 0 0 1.0
-0.26517892 0.12093127 -0.40383226 0 0 252 0.12283655
-0.27076167 -0.7562088 0.2574214 58 255 198 0.43144986
-0.28425825 -0.72114515 0.3779503 255 104 0 0.7729355
0.052352905 -0.14839292 0.34237733 0 108 255 0.23400427
-0.26498303 0.7487471 0.13413052 128 0 0 1.0
0.49820992 0.03532892 0.33454186 0 0 128 0.0
-0.24184884 0.81423193 -0.06298994 128 0 0 1.0
-0.27988997 0.11583822 -0.17325439 0 0 128 0.0
0.00026671763 0.045828436 -0.33870003 128 0 0 1.0
-0.18102613 -0.617482 -0.29286262 255 200 0 0.67866343
-0.29234836 0.72471184 -0.11838661 128 0 0 1.0
-0.29234836 0.2886492 -0.3482985 0 0 156 0.028437223
-0.29234836 -0.23207557 -0.37868044 0 0 128 0.0
0.48690724 -0.06935276 -0.40383226 0 0 128 0.0
0.38281322 0.055289745 -0.25386164 0 0 196 0.07012973
-0.22337678 0.35117614 -0.40383226 128 0 0 1.0
-0.27076167 -0.7562088 0.2574214 202 255 54 0.574182
0.08065849 0.055289745 -0.057034995 118 255 138 0.49361497
0.07399835 -0.14839292 0.35199535 0 124 255 0.2502672
0.42263693 -0.19233023 -0.32394978 128 0 0 1.0
-0.18102613 -0.22110593 -0.3114914 0 44 255 0.16888107
0.500874 -0.44915685 0.27726468 255 80 0 0.79812574
-0.19138852 0.6277089 0.23548214 255 56 0 0.82160246
-0.29234836 -0.5116446 0.33360162 46 255 210 0.42203662
-0.25712797 0.5463769 0.026099185 128 0 0 1.0
0.42263693 -0.3694115 0.32825392 150 255 106 0.5227471
0.32065848 0.023771627 -0.40383226 128 0 0 1.0
0.500874 -0.64847124 -0.40208885 255 112 0 0.765109
-0.19244632 0.81141114 -0.09106046 128 0 0 1.0
-0.29234836 -0.43812844 0.3487828 46 255 210 0.4219705
-0.1859037 0.03532892 -0.18402812 0 0 128 0.0
0.49333233 -0.0038875293 0.3779503 0 0 196 0.06929655
-0.29234836 0.013037054 -0.28831804 0 0 152 0.025771556
-0.23132977 -0.5607729 0.2574214 255 80 0 0.7986038
0.32300913 -0.14839292 -0.23292138 128 0 0 1.0
0.42263693 -0.68404424 0.3232784 140 0 0 0.99139464
0.42263693 -0.14245756 -0.100580536 114 255 142 0.4866463
-0.28562945 0.58242 0.27119222 236 0 0 0.89505005
-0.28284788 0.11536809 -0.025242636 0 0 184 0.05694682
-0.2123092 0.26547584 0.17826372 54 255 202 0.43035948
-0.24484593 0.77587736 0.02946843 128 0 0 1.0
0.39450765 0.020461148 -0.40383226 6 255 250 0.38330415
0.16882694 -0.03133121 0.3779503 0 0 128 0.0
-0.27048746 0.10097045 -0.19689786 0 0 128 0.0
0.21323438 -0.14839292 -0.15868044 146 255 110 0.52095044
0.42263693 -0.29991102 0.29767606 255 172 0 0.7064092
-0.18758833 0.6249469 0.32131955 255 64 0 0.8119473
-0.18602124 -0.78782487 0.37608936 255 140 0 0.7406077
-0.20692231 0.513801 -0.40383226 128 0 0 1.0
0.0061824857 -0.029000161 -0.40383226 42 255 214 0.41737884
0.29936564 0.03532892 0.3600071 0 72 255 0.19857045
0.45346943 -0.74661034 0.3779503 128 0 0 1.0
-0.21377833 -0.1825359 0.3779503 0 0 224 0.095669255
-0.19499283 0.14457476 -0.010492391 255 160 0 0.7210963
-0.19581555 0.19442783 -0.02516428 0 196 255 0.31844193
-0.2752083 0.8140556 0.042788707 128 0 0 1.0
-0.29234836 0.49736613 0.321202 128 0 0 1.0
-0.2114277 -0.14839292 -0.20210844 0 0 255 0.12746665
0.43640774 -0.3657876 0.3779503 62 255 194 0.4362075
-0.047372848 -0.14839292 0.3248063 98 255 158 0.4707686
0.20142245 -0.14839292 0.1326222 0 208 255 0.33000106
-0.017833186 -0.14839292 0.11256343 184 0 0 0.94683444
0.20921873 -0.14839292 -0.39378327 0 196 255 0.31797066
-0.18758833 0.30886465 0.3286653 202 255 54 0.5743749
0.3022256 -0.11383856 -0.40383226 0 144 255 0.26885328
-0.22549233 0.58831614 0.09636363 128 0 0 1.0
-0.21998793 0.14623979 0.3779503 10 255 246 0.38579336
-0.29234836 -0.06523915 0.088293105 0 0 132 0.00626309
-0.28974307 0.36667076 0.3779503 170 255 86 0.5438728
-0.21575679 0.72524077 0.0233176 128 0 0 1.0
0.118836746 0.055289745 0.09056539 82 255 174 0.45844787
0.026476312 0.055289745 -0.31284302 0 164 255 0.28981662
-0.28182927 0.36755225 -0.028455172 128 0 0 1.0
-0.19851878 0.5863377 -0.14443949 164 0 0 0.9650761
0.3849092 -0.05017548 0.3779503 0 0 128 0.0
0.28432158 0.055289745 0.017636893 0 0 128 0.0
0.500874 -0.24004814 -0.32063928 0 44 255 0.17141509
-0.29234836 0.31027508 0.2965987 128 0 0 1.0
-0.027412035 0.055289745 0.24128036 0 0 136 0.010476297
-0.20298499 0.44886467 -0.040463008 188 0 0 0.94232565
-0.22837186 0.71007913 0.2677446 128 0 0 1.0
0.3370346 0.055289745 -0.12916036 0 0 128 0.0
-0.18602124 -0.18259469 0.3306829 0 0 200 0.074303225
-0.27812698 0.39405566 0.15338616 128 0 0 1.0
0.425634 -0.48847124 -0.40383226 255 132 0 0.74660486
0.48291117 -0.71438706 -0.40383226 146 255 110 0.5179671
-0.115502134 -0.14839292 0.33360162 0 0 128 0.0
0.377681 -0.14839292 -0.21564418 0 248 255 0.36873776
-0.18602124 -0.7525065 0.3143264 255 108 0 0.76946306
-0.27777442 0.40114674 -0.15507612 255 76 0 0.80336124
-0.18102613 -0.61936253 -0.3615208 118 255 138 0.49259108
0.4802863 -0.09538606 -0.40383226 0 132 255 0.25507012
0.500874 -0.57650256 -0.33589885 206 255 50 0.579209
0.4568191 0.03532892 -0.3053406 255 72 0 0.80549526
0.500874 -0.027570194 -0.39433175 0 24 255 0.1521423
-0.20412113 0.60020643 0.35389546 128 0 0 1.0
-0.27924356 -0.14208537 0.3779503 0 0 128 0.0
0.500874 -0.16469066 0.3448455 38 255 218 0.41487125
-0.27473816 0.39607328 0.3779503 34 255 222 0.41071644
0.32277405 -0.054112796 -0.40383226 0 104 255 0.22897275
-0.23928276 -0.13033219 0.3779503 0 0 128 0.0
-0.29234836 0.7567197 0.13591309 128 0 0 1.0
-0.2027695 0.6763475 0.010780869 128 0 0 1.0
-0.2635139 0.5997168 -0.20398895 144 0 0 0.9845216
0.100364655 -0.14839292 0.15849881 38 255 218 0.4126302
0.465634 -0.79197764 -0.33045322 140 0 0 0.98914176
0.28165752 0.055289745 -0.14737779 0 0 128 0.0
-0.26273036 0.6615777 0.104727976 128 0 0 1.0
0.10087396 0.055289745 0.2836702 0 0 128 0.0
-0.19638361 0.08204782 -0.3182103 0 0 128 0.0
-0.29234836 0.10970698 0.3417505 184 0 0 0.9474935
-0.29234836 -0.25419113 -0.3146256 54 255 202 0.42870834
-0.18102613 -0.757913 -0.3565061 255 224 0 0.6569513
-0.20745121 -0.79197764 -0.38189298 128 0 0 1.0
-0.27836207 0.61783624 -0.18222597 128 0 0 1.0
0.2975243 -0.14839292 -0.23123676 0 140 255 0.26601788
-0.29234836 -0.5401657 -0.35047278 102 255 154 0.47633052
-0.29234836 0.021401402 0.3017701 14 255 242 0.3915282
0.09462519 -0.012388999 -0.40383226 0 24 255 0.15008684
-0.29234836 0.4298637 0.32799926 206 255 50 0.5791539
0.500874 -0.017873818 0.10666725 0 0 128 0.0
-0.20041889 0.5068862 0.007685865 128 0 0 1.0
-0.22547275 -0.7182068 -0.40383226 128 0 0 1.0
-0.29234836 0.107944004 0.3767554 255 252 0 0.6289317
-0.29234836 -0.0018307238 -0.31730923 0 0 128 0.0
0.500874 -0.4511549 -0.32884693 164 0 0 0.965679
0.41015896 -0.14839292 -0.36724067 128 0 0 1.0
-0.27836207 0.54063743 -0.03679993 128 0 0 1.0
-0.18758833 0.42100963 0.2977544 255 0 0 0.8758091
-0.29234836 0.68859035 -0.2742926 168 0 0 0.9640409
-0.05669705 -0.14839292 -0.060756832 158 255 98 0.53255653
-0.18758833 0.114271134 -0.39382246 0 124 255 0.25067905
0.42263693 -0.4892744 0.26419908 128 0 0 1.0
-0.20253445 0.663419 0.17009528 128 0 0 1.0
-0.28414074 -0.3704301 0.2574214 0 0 128 0.0
0.14418444 0.017131079 0.3779503 0 0 128 0.0
-0.29234836 0.6098245 -0.29466477 128 0 0 1.0
0.08285241 0.02557378 0.3779503 0 0 128 0.0
0.42263693 -0.46525872 -0.36673138 255 248 0 0.63396215
-0.20813681 0.64416337 0.10484551 128 0 0 1.0
0.42263693 -0.5709198 0.29042825 128 0 0 1.0
-0.20218188 0.7205786 0.16964473 128 0 0 1.0
-0.29234836 0.46048075 0.37722552 194 255 62 0.56649107
-0.08621712 0.055289745 0.06180927 255 28 0 0.84931207
-0.29144728 -0.77260447 -0.40383226 136 0 0 0.9948791
-0.25998792 -0.38106677 -0.40383226 0 192 255 0.3175107
-0.112818494 0.03532892 0.3249826 0 0 128 0.0
-0.18758833 0.5512936 -0.3299635 128 0 0 1.0
-0.118322894 -0.14839292 0.034659423 180 0 0 0.95109963
0.500874 -0.58312356 -0.29817113 0 56 255 0.18195501
0.33015895 -0.14839292 -0.07615351 34 255 222 0.41002157
0.2368387 0.055289745 -0.26749533 255 152 0 0.7259241
0.14833723 0.03532892 0.35121182 0 0 128 0.0
0.104654565 0.055289745 -0.15979698 0 180 255 0.30327782
0.31954193 0.03532892 -0.3537441 128 0 0 1.0
-0.22893995 -0.43924502 0.2574214 0 148 255 0.27399313
0.43188277 -0.30782482 0.3779503 90 255 166 0.46475115
-0.20355307 0.68034357 0.29816577 128 0 0 1.0
0.42506593 -0.7761108 -0.40383226 114 255 142 0.4894764
-0.07387628 -0.14839292 -0.108161345 128 0 0 1.0
-0.026863553 0.055289745 0.025727002 255 88 0 0.7901122
-0.2133082 0.747278 -0.050844986 128 0 0 1.0
-0.2133082 0.747278 -0.050844986 128 0 0 1.0
0.31725007 -0.070723966 0.3779503 0 0 128 0.0
-0.12288705 0.040696207 0.28492385 0 0 128 0.0
0.43329316 -0.47144872 0.3779503 114 255 142 0.4878312
0.500874 0.015896995 -0.3323337 94 255 162 0.46694443
-0.22010547 -0.79197764 -0.34030628 154 255 102 0.52787894
-0.22414072 0.72441804 0.07534502 128 0 0 1.0
-0.22837186 0.71007913 0.2677446 128 0 0 1.0
-0.20999773 0.35143077 0.3779503 0 0 255 0.12631829
0.42263693 -0.34825578 -0.32870984 0 252 255 0.37483352
-0.29234836 -0.3661598 0.3644929 0 16 255 0.14309165
-0.113327794 -0.14839292 -0.23305848 0 0 216 0.0894795
0.42263693 -0.13160545 0.024610447 0 0 156 0.02828324
-0.29234836 -0.03264365 -0.29642776 0 60 255 0.18487015
0.32606494 -0.14839292 0.34425783 22 255 234 0.39795813
-0.29234836 0.5928607 -0.30400854 128 0 0 1.0
0.42263693 -0.39797175 -0.30894488 86 255 170 0.46202624
-0.29234836 -0.11665932 -0.30056098 0 124 255 0.25009218
-0.2507225 0.7322535 -0.060580537 128 0 0 1.0
-0.21377833 -0.1825359 0.3779503 22 255 234 0.39747778
-0.19820538 0.19160707 0.16445373 0 228 255 0.34979326
0.500874 -0.08733513 -0.32990474 0 0 136 0.007876972
-0.23387627 0.78898215 -0.16541892 128 0 0 1.0
0.42263693 -0.20169361 0.2641795 46 255 210 0.42110232
-0.10660889 -0.14839292 -0.07172647 0 76 255 0.20123708
-0.23936109 0.38008898 0.03019321 128 0 0 1.0
-0.18602124 -0.4295682 0.37132934 222 255 34 0.5951514
-0.25187826 0.38410464 0.29614815 255 140 0 0.7394344
-0.29234836 -0.50179154 -0.37621227 128 0 0 1.0
-0.24092819 0.19660218 -0.21354821 0 68 255 0.193667
-0.29234836 -0.35801092 -0.35156974 0 220 255 0.3434425
-0.22596246 0.7038695 0.096304856 128 0 0 1.0
0.47979656 -0.13777587 -0.40383226 0 240 255 0.3634739
-0.29234836 0.5253583 -0.33866087 255 72 0 0.80605173
0.48986515 -0.41928416 0.2574214 255 72 0 0.80735743
-0.24184884 0.81423193 -0.06298994 128 0 0 1.0
0.42263693 -0.12185031 -0.053724516 0 0 248 0.11965562
0.500874 -0.092643656 0.17395422 0 0 212 0.08577283
0.42263693 -0.5709198 0.29042825 128 0 0 1.0
-0.23093799 0.17924665 0.18425786 94 255 162 0.46799272
-0.19089882 0.036758896 0.13769566 0 172 255 0.29499683
-0.2794786 0.47152874 0.1469611 128 0 0 1.0
0.500874 -0.05229105 0.0040423796 0 0 128 0.0
-0.14286746 -0.14839292 0.106138356 0 0 128 0.0
-0.29234836 -0.11528812 -0.088063404 118 255 138 0.49217165
-0.19736306 0.0665728 -0.19278425 0 0 255 0.12701322
-0.23565884 0.719227 0.092093304 128 0 0 1.0
-0.27634445 0.27493715 0.010193211 128 0 0 1.0
-0.18102613 -0.6793626 -0.30398896 128 0 0 1.0
0.39484066 0.055289745 0.20455168 0 0 128 0.0
-0.29234836 0.1427726 0.31109425 146 255 110 0.5195306
0.44598657 -0.04758978 -0.40383226 0 44 255 0.17238851
-0.2923092 0.23295869 0.29614815 0 0 128 0.0
-0.29234836 0.77031416 -0.043949783 128 0 0 1.0
0.500874 -0.06878469 -0.37127593 0 0 140 0.012492272
0.42263693 -0.7304105 0.37597185 128 0 0 1.0
-0.26222104 0.5108431 0.023846492 128 0 0 1.0
-0.19027197 0.12363451 0.29614815 0 52 255 0.18036756
-0.19616814 -0.3314879 0.3779503 0 0 255 0.12820975
-0.2295472 -0.47209513 -0.27613392 0 204 255 0.32825494
-0.25669703 -0.058853246 0.3779503 0 180 255 0.30422953
0.24598661 -0.0021833184 0.3779503 0 0 156 0.031110464
-0.2700761 0.79756194 -0.13774016 128 0 0 1.0
-0.21503201 -0.79197764 0.3191452 255 16 0 0.8597572
-0.18102613 -0.31342715 -0.32800463 10 255 246 0.3865856
-0.20533563 0.81078434 -0.09507614 128 0 0 1.0
0.500874 -0.34533706 -0.40365595 255 140 0 0.7395024
-0.118322894 -0.14839292 0.034659423 50 255 206 0.4245583
-0.22370978 -0.546865 0.2574214 128 0 0 1.0
-0.032975204 0.03532892 0.34631464 0 0 128 0.0
0.27901304 -0.09338802 0.3779503 0 0 232 0.10407235
0.42222556 0.055289745 0.194013 0 0 128 0.0
-0.19307312 -0.17940173 -0.27613392 0 0 128 0.0
-0.20719653 -0.689627 0.3779503 255 240 0 0.63990724
-0.13027197 0.055289745 0.13722554 255 168 0 0.71047926
0.22651547 0.015348513 -0.40383226 255 48 0 0.82845485
-0.012015363 -0.054582927 0.3779503 0 0 128 0.0
-0.18758833 0.15391853 -0.3818342 18 255 238 0.39304647
-0.029077068 0.055289745 0.22155462 0 0 128 0.0
0.39006102 -0.14839292 0.30752912 0 76 255 0.2011604
0.038249083 0.055289745 -0.18430237 255 36 0 0.84117645
-0.2457274 0.057816684 -0.21292137 0 0 128 0.0
-0.29234836 -0.44463187 -0.32679012 0 0 128 0.0
0.42263693 -0.13160545 0.024610447 0 0 128 0.0
0.066280425 0.055289745 -0.15525243 255 148 0 0.7310056
0.48704436 -0.29793257 -0.27613392 255 208 0 0.67256486
-0.260556 0.7291781 -0.0820301 128 0 0 1.0
-0.26318088 0.572038 0.10508057 128 0 0 1.0
0.00018835884 -0.14839292 0.019439047 146 255 110 0.5191487
0.09462519 -0.012388999 -0.40383226 0 56 255 0.18354167
-0.29234836 -0.7419091 0.33955657 255 4 0 0.8714275
0.46724024 -0.3805966 -0.27613392 118 255 138 0.491311
-0.28778422 0.80506444 0.09148606 128 0 0 1.0
0.4966232 -0.18676706 -0.40383226 150 255 106 0.5239818
-0.29234836 -0.4207729 -0.3221868 0 68 255 0.19321053
0.017798547 0.055289745 0.12645179 58 255 198 0.432821
-0.19654033 -0.59710985 0.2574214 128 0 0 1.0
-0.25275972 0.7353681 -0.029552136 128 0 0 1.0
-0.26253447 0.5211663 -0.13399875 128 0 0 1.0
-0.18602124 -0.7525065 0.3143264 128 0 0 1.0
-0.2812612 -0.12104718 0.3779503 0 72 255 0.19960164
-0.2081564 0.7315679 0.10482592 128 0 0 1.0
0.10945378 -0.14839292 0.35050663 0 0 128 0.0
0.500874 -0.5953273 -0.32330334 128 0 0 1.0
0.009355842 0.03532892 0.35440475 0 0 128 0.0
-0.1957176 0.30575007 -0.149082 172 0 0 0.95908874
-0.25307316 0.03532892 -0.1304728 0 0 144 0.019349037
0.500874 -0.046277344 0.046902318 42 255 214 0.4163
0.069297075 0.055289745 0.06455168 98 255 158 0.47266713
0.3282001 0.03532892 0.3650218 0 0 128 0.0
0.4878671 -0.113485955 -0.09235331 10 255 246 0.386391
-0.108509 -0.14839292 -0.099934116 0 176 255 0.29825187
-0.18758833 0.63922703 0.3148357 128 0 0 1.0
-0.29234836 0.06461394 0.3601834 0 208 255 0.3305765
-0.2210849 -0.10753102 -0.40383226 0 0 220 0.09388958
-0.27614856 0.20271383 -0.15113881 0 0 204 0.07606948
-0.29234836 -0.5580697 0.37440476 0 84 255 0.20816068
-0.18758833 0.33203802 0.30645177 128 0 0 1.0
-0.28135914 0.42263547 0.3779503 222 255 34 0.5933101
-0.2789889 0.75775784 -0.22604576 128 0 0 1.0
-0.26772544 -0.7410472 -0.27613392 128 0 0 1.0
-0.19195658 0.4772878 -0.17969903 255 176 0 0.7053405
-0.18102613 -0.7575213 -0.32381266 255 20 0 0.85564476
0.38387102 -0.14839292 0.06566823 0 184 255 0.30625793
0.500874 -0.009509468 -0.046809725 0 0 128 0.0
0.4545468 -0.3973253 0.3779503 255 176 0 0.7032475
-0.22310251 -0.40747222 -0.27613392 0 108 255 0.2317039
-0.26995853 0.1398343 0.017911134 0 208 255 0.3306915
-0.22893995 -0.43924502 0.2574214 0 72 255 0.19683686
-0.26498303 0.7487471 0.13413052 128 0 0 1.0
-0.29234836 0.006886221 0.26300418 22 255 234 0.3979933
-0.27465984 0.19021627 -0.40383226 255 68 0 0.8089736
-0.27131015 -0.79197764 0.26012465 128 0 0 1.0
-0.2874512 0.03532892 0.23987 190 255 66 0.5634776
-0.19511037 -0.6243968 -0.27613392 128 0 0 1.0
-0.19311233 0.42183235 -0.15536995 128 0 0 1.0
-0.18602124 -0.34412256 0.33830288 0 0 128 0.0
0.33725008 0.055289745 -0.2164865 0 0 128 0.0
-0.18758833 0.78243953 0.05924316 128 0 0 1.0
0.500874 0.015896995 -0.3323337 0 0 128 0.0
-0.2649243 0.08674909 -0.051177993 0 0 128 0.0
-0.18758833 0.24212617 0.33369958 0 0 128 0.0
-0.2740134 0.1501771 0.16288665 0 0 255 0.12613258
-0.20010546 -0.14839292 -0.23186357 0 0 140 0.0135543775
0.464204 -0.03869654 -0.40383226 0 144 255 0.2685995
-0.1824365 0.03532892 -0.11123676 0 164 255 0.2885286
0.3768191 -0.14839292 -0.15707415 122 255 134 0.49485764
-0.20999773 0.35143077 0.3779503 0 204 255 0.3262685
0.43329316 -0.47144872 0.3779503 128 0 0 1.0
0.4204626 0.03532892 0.374346 0 0 128 0.0
0.42263693 -0.686532 -0.40087435 234 255 22 0.60662013
0.500874 0.01910953 0.23115306 0 0 128 0.0
0.073077686 0.055289745 -0.31697625 90 255 166 0.46544868
0.4474753 -0.38427928 0.3779503 210 255 46 0.58214897
-0.1973043 0.25049052 0.16329801 255 120 0 0.76017743
0.42263693 -0.5709198 0.29042825 128 0 0 1.0
-0.28135914 0.42263547 0.3779503 255 36 0 0.84241194
-0.22596246 0.7038695 0.096304856 128 0 0 1.0
-0.0629654 0.03532892 -0.39744636 142 255 114 0.5152138
0.42263693 -0.52386796 -0.3175835 0 0 132 0.0070954505
-0.18758833 0.39431033 -0.39260796 66 255 190 0.44160625
-0.16639343 0.03532892 -0.26351884 0 88 255 0.21402562
0.500874 -0.65983266 -0.34933665 98 255 158 0.47356376
-0.12263239 -0.14839292 0.1900365 0 8 255 0.13650148
-0.29234836 0.041616876 0.33830288 50 255 206 0.42372134
-0.20809762 -0.2747396 0.3779503 0 12 255 0.14011979
0.2487094 0.055289745 0.15127058 0 0 128 0.0
-0.2793611 0.5231448 0.13199538 128 0 0 1.0
0.21272509 -0.14839292 -0.06073725 0 56 255 0.18139856
-0.18602124 -0.15900995 0.3148357 0 0 188 0.05946389
-0.2629654 0.62731713 -0.13433176 128 0 0 1.0
-0.042710755 -0.14839292 -0.023793075 182 255 74 0.5556365
0.30050176 -0.14839292 -0.17280385 0 208 255 0.3312253
0.42263693 -0.12512162 0.17904729 0 140 255 0.26519445
-0.18102613 -0.7635545 -0.2877304 212 0 0 0.92001307
0.500874 -0.016561378 0.3634155 0 0 128 0.0
-0.29234836 -0.5116446 0.33360162 0 112 255 0.23799247
0.09070746 -0.14839292 -0.39247084 0 152 255 0.2750797
0.500874 -0.027570194 -0.39433175 162 255 94 0.5347492
-0.25532582 -0.5669629 -0.27613392 210 255 46 0.5828955
0.066280425 0.055289745 -0.15525243 0 156 255 0.27849588
-0.05191741 0.055289745 0.17871428 0 0 128 0.0
-0.22946882 0.18629856 -0.12526222 0 40 255 0.16497602
-0.18602124 -0.16453394 0.30212268 0 12 255 0.13776532
-0.023318011 -0.14839292 -0.16087437 0 28 255 0.1538911
0.009355842 0.03532892 0.35440475 0 0 128 0.0
-0.29234836 0.48500574 0.34664765 208 0 0 0.92537886
-0.07530625 0.055289745 -0.3023239 0 0 128 0.0
0.43677995 -0.68122345 -0.27613392 128 0 0 1.0
-0.18102613 0.03532892 0.2841403 0 88 255 0.21403284
0.42263693 -0.3694115 0.32825392 236 0 0 0.8958666
-0.29234836 0.48533872 -0.3344297 128 0 0 1.0
-0.29234836 -0.5090002 0.2688024 250 255 6 0.621747
0.054448888 -0.08185031 0.3779503 0 180 255 0.30541807
-0.24770586 0.09442784 0.029096248 0 0 128 0.0
-0.29234836 0.44949153 -0.34171668 255 224 0 0.6549343
0.3902569 -0.14839292 0.029233368 0 108 255 0.23502485
-0.18758833 0.69623 0.1773039 128 0 0 1.0
-0.21489488 0.66296846 0.19675541 128 0 0 1.0
-0.20222104 0.7290409 -0.19911139 128 0 0 1.0
0.42263693 -0.41689438 0.37320983 128 0 0 1.0
-0.27215245 0.52904093 -0.04504675 128 0 0 1.0
-0.28862652 0.68097043 -0.19593802 128 0 0 1.0
-0.2512514 -0.14839292 -0.11100169 0 188 255 0.31214744
-0.16376854 -0.14839292 0.30643216 0 140 255 0.26365468
-0.038068246 0.055289745 -0.030081028 128 0 0 1.0
-0.19399382 0.03532892 0.26216185 158 255 98 0.53036475
0.500874 -0.56183076 0.29563883 255 172 0 0.70665234
-0.29234836 -0.6084908 -0.28075683 2 255 254 0.37802735
0.47703457 -0.11360349 0.3779503 0 0 156 0.027724678
-0.19763729 0.41769916 0.116187334 255 124 0 0.75308746
-0.23050703 0.16751306 0.18419908 0 0 248 0.1196954
-0.250605 0.47264528 -0.40383226 128 0 0 1.0
0.32606494 -0.14839292 0.34425783 0 0 128 0.0
0.08808258 0.05393813 0.28492385 0 0 128 0.0
0.26418442 -0.12439683 0.3779503 0 212 255 0.3353236
-0.29234836 -0.043652464 0.018283317 0 0 128 0.0
-0.27076167 -0.7562088 0.2574214 128 0 0 1.0
0.500874 0.006690335 -0.19728963 0 0 128 0.0
-0.29234836 -0.060459517 0.27646157 254 255 1 0.62536585
-0.29234836 0.8032623 -0.06189298 128 0 0 1.0
-0.20984101 0.25491756 0.29614815 255 116 0 0.7619366
0.42263693 -0.13162504 -0.02733862 0 0 204 0.07506977
-0.29234836 -0.2448082 0.31996793 26 255 230 0.4026675
-0.24986058 -0.2501167 -0.40383226 0 0 128 0.0
-0.20839146 0.4434974 -0.04708397 128 0 0 1.0
-0.29234836 -0.06523915 0.088293105 0 0 128 0.0
0.008729008 0.055289745 -0.30624166 0 204 255 0.32590145
0.28165752 0.055289745 -0.14737779 0 0 128 0.0023682066
0.500874 -0.44915685 0.27726468 234 255 22 0.6072723
-0.23732388 0.7330566 0.030526219 128 0 0 1.0
0.42263693 -0.46525872 -0.36673138 122 255 134 0.4970279
0.4304528 0.055289745 -0.3270056 94 255 162 0.4703912
-0.26611918 0.25127408 0.17256343 172 0 0 0.9579517
-0.23808783 0.78367364 -0.03511531 128 0 0 1.0
0.42498755 0.055289745 0.2090179 0 0 128 0.0
-0.21552172 0.47844353 -0.40383226 128 0 0 1.0
-0.21912602 0.816132 0.022024749 128 0 0 1.0
-0.24149626 0.49043173 0.3779503 255 252 0 0.62927985
0.025614409 -0.14839292 0.088018864 0 0 128 0.0
-0.0076275044 -0.12919606 -0.40383226 0 0 232 0.10308776
0.23830785 0.055289745 0.20341554 0 0 128 0.0
-0.23828372 -0.45879444 0.2574214 0 0 244 0.11457186
0.18126573 0.055289745 -0.3380536 50 255 206 0.42455018
-0.25328863 0.10911932 0.29614815 0 136 255 0.26094732
-0.20218188 0.7205786 0.16964473 128 0 0 1.0
-0.19344532 0.3638108 0.12517852 248 0 0 0.8844355
-0.038068246 -0.14839292 -0.251178 0 104 255 0.23018888
-0.16745122 -0.14839292 -0.027867513 0 72 255 0.19639526
0.3735086 0.055289745 0.256011 0 0 128 0.0
-0.21023278 0.40134263 0.10321966 128 0 0 1.0
0.500874 -0.22167401 0.29556048 0 0 244 0.11468028
-0.2803993 0.41158748 0.3779503 230 255 26 0.6014472
0.1878867 0.055289745 0.24431662 0 0 128 0.0
0.500874 -0.30157605 0.32829309 18 255 238 0.3930775
-0.05842084 0.055289745 0.25977203 0 0 128 0.0
0.40038425 0.055289745 -0.08171668 0 0 128 0.0
0.40690723 0.055289745 0.19379751 0 0 208 0.08002867
-0.29234836 -0.35869652 -0.29399878 128 0 0 1.0
-0.27473816 0.39607328 0.3779503 252 0 0 0.87858444
-0.29234836 -0.31003833 0.32039887 0 0 128 0.0
-0.1950712 0.77315456 -0.019581519 128 0 0 1.0
-0.25712797 0.5463769 0.026099185 128 0 0 1.0
0.48690724 -0.06935276 -0.40383226 0 0 128 0.0
-0.18758833 0.22048073 -0.32387143 0 92 255 0.21820185
-0.18758833 0.75387937 -0.15427299 128 0 0 1.0
-0.24715737 -0.41499427 0.3779503 46 255 210 0.42285097
-0.22574697 0.5450253 -0.12575193 128 0 0 1.0
0.43221578 -0.52241844 -0.27613392 0 168 255 0.29149628
-0.017833186 -0.14839292 0.11256343 255 64 0 0.8134705
0.18071724 0.055289745 -0.14651589 0 0 128 0.0
-0.012798907 -0.052584887 -0.40383226 0 0 128 0.0
-0.25373915 0.03532892 0.09015403 0 0 128 0.0
-0.29234836 0.73575985 -0.2423631 128 0 0 1.0
-0.29234836 -0.32324108 -0.40226516 0 144 255 0.2683977
0.24514426 -0.14839292 0.093484096 126 255 130 0.49983692
-0.2677842 0.03532892 0.2611824 0 0 128 0.0
-0.19303396 0.2282966 -0.18312705 0 232 255 0.3555517
-0.2027695 0.6763475 0.010780869 128 0 0 1.0
0.08065849 0.055289745 -0.057034995 0 184 255 0.30957907
-0.28472838 0.47593614 0.3779503 255 132 0 0.74644566
0.035643797 0.055289745 -0.033411097 255 8 0 0.86806375
-0.06355307 -0.14839292 -0.3547823 106 255 150 0.48072118
-0.16067354 -0.05685521 0.3779503 0 56 255 0.18363053
-0.21023278 0.40134263 0.10321966 128 0 0 1.0
-0.29234836 -0.17779545 -0.3628528 0 0 128 0.0
0.500874 -0.30089045 0.29928234 128 0 0 1.0
-0.27697128 0.69505465 -0.30759326 128 0 0 1.0
-0.18102613 -0.6777563 -0.39488024 255 224 0 0.6557868
-0.18758833 0.24212617 0.33369958 0 0 128 0.0
-0.2724463 0.16281177 -0.19437093 0 0 232 0.10204326
0.1578769 0.055289745 -0.3110213 172 0 0 0.9574339
-0.27213287 -0.14839292 0.20843023 0 0 128 0.0
-0.020986965 -0.048863042 0.3779503 0 0 128 0.0
-0.27614856 0.20271383 -0.15113881 0 172 255 0.2956643
-0.18602124 -0.78782487 0.37608936 128 0 0 1.0
-0.27213287 -0.14839292 0.20843023 0 88 255 0.21225375
0.43848413 -0.35193846 0.3779503 78 255 178 0.4546641
-0.29234836 -0.5627906 0.3131315 0 144 255 0.26956114
-0.18758833 0.42369327 0.3375585 86 255 170 0.4588411
0.500874 -0.05162504 0.32956636 0 0 128 0.0
-0.2882935 -0.7187553 -0.27613392 58 255 198 0.4333636
-0.25148648 0.48412424 -0.3182103 255 168 0 0.71024716
0.500874 -0.07709027 0.16443415 0 0 128 0.0
-0.21256384 0.7005591 -0.13086456 128 0 0 1.0
0.42263693 -0.54253596 -0.39525244 255 140 0 0.7390623
-0.19326901 0.11023588 0.15430683 0 0 128 0.0
0.46506593 -0.74394625 -0.40383226 90 255 166 0.46504557
-0.29234836 0.006886221 0.26300418 0 0 132 0.00777923
0.500874 0.016817661 -0.19352861 218 255 38 0.58956295
0.09111882 -0.14839292 0.081182435 0 212 255 0.33351323
0.13462518 -0.14839292 0.060555596 0 116 255 0.24257222
-0.29234836 0.025417073 0.04799928 0 0 132 0.006335852
-0.22584493 0.50653356 0.09632445 128 0 0 1.0
0.17013939 0.055289745 -0.018739207 0 0 128 0.0
-0.18602124 -0.18255551 0.34218144 0 0 128 0.0
-0.22956678 -0.55381894 0.3779503 202 255 54 0.57411224
0.015369555 -0.14839292 -0.13033567 0 0 180 0.054802883
-0.28392527 0.28516242 -0.017015407 128 0 0 1.0
0.3769758 0.055289745 -0.33017898 0 0 232 0.10289322
-0.050291564 -0.14839292 -0.2982299 0 0 128 0.0
0.015369555 -0.14839292 -0.13033567 0 204 255 0.32868633
0.42263693 -0.7293136 0.32370934 164 0 0 0.9684423
0.118836746 0.055289745 0.09056539 0 0 128 0.0
-0.29234836 -0.074935526 -0.1516677 0 0 128 0.0
0.500874 -0.5725849 0.2977544 128 0 0 1.0
-0.25019363 0.1664161 0.02876324 255 100 0 0.7789723
-0.21321027 0.4906472 -0.05076663 128 0 0 1.0
-0.1958939 0.3684729 0.16061437 255 32 0 0.84569335
-0.18758833 0.69241023 -0.3009919 128 0 0 1.0
0.500874 -0.4618503 -0.40363637 128 0 0 1.0
0.36986515 -0.14839292 0.25473776 0 120 255 0.24520448
-0.2633572 0.79703313 0.11736264 128 0 0 1.0
-0.26995853 0.1398343 0.017911134 0 56 255 0.18317236
-0.24286747 0.42835537 -0.40383226 255 4 0 0.8745086
0.033919998 0.055289745 0.10772504 0 180 255 0.30227512
-0.2074316 0.16716045 0.29614815 0 136 255 0.26103044
-0.24555111 -0.6251216 -0.40383226 255 248 0 0.63436556
-0.25170195 0.43752286 0.29614815 128 0 0 1.0
-0.27121222 0.07393813 -0.40383226 0 0 128 0.0
0.48957133 0.03532892 -0.08105067 0 0 128 0.0
0.4783862 -0.112898305 -0.40383226 0 0 200 0.07105137
-0.18758833 0.5416168 -0.37088418 128 0 0 1.0
0.18126573 0.055289745 -0.3380536 0 124 255 0.24945676
-0.07119264 -0.14839292 -0.30110943 0 0 128 0.0
-0.18758833 0.69241023 -0.3009919 128 0 0 1.0
-0.18758833 0.20571089 -0.35985577 0 0 128 0.0
-0.22010547 0.25505468 0.09814619 70 255 186 0.44463012
-0.2431417 0.6445943 -0.34849435 180 0 0 0.952347
0.42263693 -0.5828689 -0.31570297 0 232 255 0.3558437
0.44412568 -0.20239879 -0.27613392 0 232 255 0.35358274
-0.29234836 -0.039656382 0.06439497 0 0 128 0.0
-0.18758833 0.13942294 -0.35985577 0 0 128 0.0
-0.22396442 0.48410463 -0.056525692 128 0 0 1.0
-0.29234836 -0.4998523 -0.3549194 82 255 174 0.4588016
-0.2207519 -0.34480816 0.3779503 0 0 232 0.105431676
-0.26972347 -0.0061206343 0.3779503 255 148 0 0.7315223
0.42263693 -0.6514487 0.2879405 128 0 0 1.0
0.24463497 -0.14839292 0.28081024 0 16 255 0.14341156
-0.23003691 -0.008197029 0.3779503 128 0 0 1.0
-0.22396442 0.48410463 -0.056525692 128 0 0 1.0
-0.21977244 0.42061785 0.3779503 128 0 0 1.0
0.44857228 -0.22939193 -0.40383226 255 128 0 0.75264114
0.500874 -0.44915685 0.27726468 136 0 0 0.9935854
0.40643713 0.055289745 -0.31505653 0 0 128 0.0
-0.20821516 0.71489793 0.10604042 128 0 0 1.0
-0.29234836 -0.03264365 -0.29642776 0 124 255 0.24798955
-0.19121222 0.4034974 0.29614815 255 236 0 0.6434429
-0.28854814 -0.42308438 0.2574214 0 44 255 0.17122652
-0.29234836 -0.07726657 0.084767155 0 0 128 0.0
-0.19530626 -0.70563096 -0.27613392 126 255 130 0.501874
-0.24570782 0.5121359 -0.21292137 128 0 0 1.0
-0.03270097 -0.08578763 0.3779503 0 48 255 0.17454997
-0.18758833 0.18273342 -0.3797774 0 120 255 0.24704254
0.32065848 0.023771627 -0.40383226 0 216 255 0.33869505
-0.29234836 -0.30392668 0.27416968 0 0 128 0.0
-0.18602124 -0.15446539 0.29763687 62 255 194 0.4354261
-0.18758833 0.78243953 0.05924316 128 0 0 1.0
-0.046060406 0.040461145 -0.33870003 0 252 255 0.3743338
0.34594738 -0.14839292 -0.26534057 218 255 38 0.5884796
-0.2647284 0.5015385 -0.0513347 128 0 0 1.0
0.500874 -0.05844189 -0.26543853 0 0 128 0.0
-0.2767362 -0.14839292 0.15346451 0 8 255 0.1348358
-0.0049046855 -0.14839292 0.35422844 0 0 176 0.047591552
-0.013778342 -0.14839292 0.042024747 255 124 0 0.7550651
-0.2837881 0.03532892 0.037166763 0 0 128 0.0
-0.21501243 0.79380095 0.12784258 128 0 0 1.0
0.16765164 -0.14839292 -0.05627104 0 112 255 0.23917079
-0.2110751 0.2662202 0.29614815 66 255 190 0.43998778
-0.25111428 -0.14171319 0.3779503 0 0 128 0.0
-0.18602124 -0.5411059 0.37751934 0 188 255 0.3103142
-0.19479693 0.63241017 -0.011961538 128 0 0 1.0
-0.28390566 0.41732696 -0.3182103 66 255 190 0.4416644
-0.24431701 0.7447119 0.2267456 128 0 0 1.0
-0.24237776 0.6890018 0.15920399 128 0 0 1.0
-0.29234836 -0.43812844 0.3487828 0 136 255 0.25962627
0.500874 -0.19767793 -0.31301934 98 255 158 0.47122577
0.20755368 -0.14839292 0.060281355 0 76 255 0.20365734
0.05687788 -0.034661278 0.3779503 0 0 128 0.0
-0.27614856 0.20271383 -0.15113881 0 0 128 0.0
-0.20584492 0.05607329 0.10660849 0 0 188 0.0610558
-0.19230919 0.23738572 -0.3182103 38 255 218 0.41314524
0.3731952 -0.059460495 0.3779503 0 0 128 0.0
-0.23134935 0.72055906 0.18429703 128 0 0 1.0
-0.03407217 0.055289745 -0.25372452 0 0 204 0.07786413
0.07458601 -0.14839292 0.2557172 0 92 255 0.21611312
-0.29234836 -0.35158584 0.34995812 0 36 255 0.1631951
-0.29234836 0.09752284 0.3106829 102 255 154 0.47805092
0.46737736 -0.4118405 -0.40383226 238 255 18 0.609567
0.066280425 0.055289745 -0.15525243 0 0 255 0.12568499
0.15380245 -0.14839292 -0.17478229 254 255 1 0.62669
-0.1745031 -0.07554277 0.3779503 0 0 128 0.0
0.500874 -0.38635567 0.3317603 128 0 0 1.0
-0.19983122 0.12637693 0.006275483 0 0 255 0.12821817
-0.2781466 0.24504487 0.007822986 34 255 222 0.40954024
0.30018836 -0.14839292 -0.259464 192 0 0 0.9400637
-0.27716717 0.20539749 0.3779503 0 180 255 0.30437988
-0.19908686 0.17407525 0.11428723 0 0 128 0.0
-0.18602124 -0.5411059 0.37751934 255 224 0 0.6585057
-0.1638469 -0.14839292 -0.1540771 0 56 255 0.18219207
-0.18102613 -0.64351535 -0.29113883 0 240 255 0.36190733
0.500874 -0.73897076 0.26128036 128 0 0 1.0
-0.29234836 0.06749347 0.32272992 128 0 0 1.0
0.500874 -0.06461231 0.036363635 0 0 128 0.0
0.38036463 -0.14839292 0.13814619 0 204 255 0.32765025
0.4206389 -0.14839292 0.28942922 0 172 255 0.29626387
-0.25669703 -0.058853246 0.3779503 255 168 0 0.70983
-0.18758833 0.7192858 0.15795033 128 0 0 1.0
-0.19820538 0.19160707 0.16445373 0 0 128 0.0
-0.012250425 -0.08727636 0.3779503 0 88 255 0.21220906
-0.07238755 0.03532892 0.31369954 0 0 128 0.0
-0.26100653 0.78367364 0.0067260223 128 0 0 1.0
0.4243999 0.03532892 -0.3437147 0 0 208 0.08149468
-0.18758833 0.51536804 0.33489448 128 0 0 1.0
-0.19560008 0.061205514 -0.005810706 128 0 0 1.0
0.2680434 -0.14839292 -0.027789159 0 0 244 0.11655289
0.42263693 -0.15387774 -0.3675149 128 0 0 1.0
0.500874 -0.055914953 -0.3437147 0 0 220 0.09194247
-0.29234836 -0.03264365 -0.29642776 0 0 128 0.0
0.4259866 -0.113485955 -0.05965987 0 0 128 0.0
0.25333235 -0.14839292 -0.3787196 178 255 78 0.55259895
-0.20259324 0.33564237 0.109723076 255 24 0 0.8534761
0.38236266 -0.10870633 -0.40383226 0 16 255 0.1450167
-0.19164318 0.65644544 0.3170688 128 0 0 1.0
-0.2905854 -0.14839292 -0.22863145 0 0 128 0.0
-0.29234836 -0.5220658 -0.32753453 0 160 255 0.28474393
-0.29234836 -0.023730822 -0.11209866 0 0 128 0.0
-0.29234836 -0.09681603 0.240203 0 0 212 0.084871605
-0.18758833 0.3998539 -0.3603063 188 0 0 0.9445755
0.500874 -0.4511549 -0.32884693 255 64 0 0.8152849
-0.18758833 0.46146017 0.29767606 166 255 90 0.53754264
-0.18758833 0.56872755 0.27951738 128 0 0 1.0
-0.29234836 -0.023926707 -0.018327845 0 0 128 0.0
-0.23593307 0.7273171 -0.26941502 128 0 0 1.0
0.4878671 -0.113485955 -0.09235331 0 0 192 0.065694965
-0.26854816 0.42766976 -0.40383226 128 0 0 1.0
-0.2567754 0.6649077 0.17932151 128 0 0 1.0
0.42706397 0.055289745 0.042103104 0 0 128 0.0
0.24463497 -0.14839292 0.28081024 0 12 255 0.13866858
-0.28182927 0.36755225 -0.028455172 255 156 0 0.7226537
-0.22224061 0.3264357 0.29614815 110 255 146 0.48248163
-0.21977244 0.42061785 0.3779503 186 255 70 0.56076944
0.500874 -0.31830475 -0.38289198 128 0 0 1.0
0.49374366 -0.113485955 -0.034566827 255 48 0 0.82763207
-0.16273034 0.03532892 0.2327985 0 0 128 0.0
0.092215784 0.055289745 -0.17936604 0 108 255 0.23297425
-0.18602124 -0.7473155 0.26300418 38 255 218 0.4120793
0.26418442 -0.12439683 0.3779503 0 48 255 0.1742289
-0.29234836 0.77344835 -0.19603597 128 0 0 1.0
0.500874 -0.51211476 -0.38516426 128 0 0 1.0
0.45497778 -0.21511182 -0.27613392 242 255 14 0.6133291
-0.28135914 -0.32171318 0.2574214 0 0 216 0.089257315
0.42263693 -0.23879449 0.32919416 0 152 255 0.27670518
0.25546747 0.055289745 -0.0022651625 0 0 128 0.0
0.500874 -0.092643656 0.17395422 0 0 128 0.0
-0.29234836 -0.2763263 -0.3387588 0 216 255 0.33755758
-0.29234836 0.27429074 -0.35679993 0 192 255 0.31424192
-0.26905745 0.33961886 0.11054581 192 0 0 0.9390241
-0.19530626 -0.70563096 -0.27613392 255 200 0 0.6819704
0.34034508 -0.11068479 -0.40383226 0 0 224 0.09538473
-0.27777442 -0.27003834 -0.27613392 62 255 194 0.43834537
0.500874 -0.05162504 0.32956636 0 0 128 0.0
-0.2533278 0.2843005 0.09914522 128 0 0 1.0
-0.2793611 0.74584794 -0.1614816 128 0 0 1.0
-0.24715737 -0.41499427 0.3779503 0 164 255 0.28781667
0.43989453 0.016504243 -0.40383226 128 0 0 1.0
0.34804338 0.055289745 0.2698406 0 44 255 0.17188494
0.4636751 -0.79197764 -0.39721128 255 64 0 0.8130865
0.464204 -0.03869654 -0.40383226 0 0 188 0.059855767
0.055937625 0.055289745 -0.15674116 0 228 255 0.35245022
0.33987492 -0.14839292 0.058283314 0 24 255 0.14978687
-0.26382732 -0.58110595 0.3779503 0 172 255 0.29519838
-0.26905745 0.33961886 0.11054581 255 96 0 0.78286755
0.500874 -0.03963679 -0.10675096 0 0 128 0.0
-0.29234836 -0.48179153 0.28202474 0 0 240 0.110494815
-0.29234836 -0.31368184 0.35548213 0 4 255 0.13020065
-0.29234836 0.8032623 -0.06189298 128 0 0 1.0
-0.20273034 0.7363867 -0.0026373467 128 0 0 1.0
-0.29234836 -0.2535643 0.3639836 0 0 128 0.0
-0.2114277 -0.14839292 -0.20210844 0 64 255 0.19113944
-0.18602124 -0.16453394 0.30212268 0 0 160 0.032562274
-0.20676559 -0.5916838 -0.27613392 0 224 255 0.34882838
-0.2861192 -0.5477073 0.2574214 0 128 255 0.25271583
-0.2793611 0.74584794 -0.1614816 128 0 0 1.0
-0.24278909 0.39756203 0.18388566 128 0 0 1.0
0.17078581 0.055289745 0.043258827 0 0 128 0.0
-0.19134936 0.3952114 0.1455507 132 0 0 0.9981943
0.34001207 0.03532892 0.3463734 0 0 248 0.117707685
-0.18758833 0.74390876 0.0989885 172 0 0 0.9591213
-0.22208393 0.42144057 -0.3182103 128 0 0 1.0
-0.29234836 0.77481955 0.06259281 128 0 0 1.0
-0.18102613 -0.2799502 -0.36140326 248 0 0 0.8826925
-0.2098606 0.03532892 -0.11337192 0 0 240 0.11139573
-0.19146687 0.1608725 -0.1628724 0 192 255 0.3171984
0.16438033 -0.14839292 0.28860652 130 255 126 0.50583136
-0.18602124 -0.71066517 0.3013979 255 128 0 0.7518933
0.4364469 -0.36884344 0.2574214 255 80 0 0.79634434
0.16310705 -0.14839292 0.35765648 0 0 128 0.0032145556
-0.2148557 0.2479244 -0.40383226 0 232 255 0.3529555
-0.2514277 0.55910945 -0.39676076 128 0 0 1.0
-0.19485572 0.79677844 -0.1402867 128 0 0 1.0
-0.13062456 0.022087004 -0.40383226 0 240 255 0.3618941
-0.1507421 -0.09995022 0.3779503 0 32 255 0.15886757
0.29936564 0.03532892 0.3600071 0 0 128 0.0
-0.23632485 -0.4159737 -0.40383226 18 255 238 0.3950864
-0.035286665 0.055289745 -0.16036505 0 124 255 0.24862744
0.4361727 -0.113485955 -0.03997329 0 0 128 0.0
0.4966232 -0.113485955 -0.24998307 0 0 128 0.0012470647
-0.1681564 0.03532892 -0.14778915 0 184 255 0.3067752
0.4783862 -0.112898305 -0.40383226 0 252 255 0.3755303
-0.28032094 0.5705297 0.0026515857 128 0 0 1.0
