ply
format ascii 1.0
element vertex 923
property float x
property float y
property float z
property uchar red
property uchar green
property uchar blue
property float weight
end_header
0.10435615 0.15928791 0.07839851 128 0 0 1.0
0.06968169 -0.39871112 -0.7765057 128 0 0 1.0
-0.36925074 -0.09234556 -0.77220184 0 252 255 0.37326667
-0.06335213 0.04984409 -0.8887917 0 184 255 0.30954233
-0.36925074 0.13470316 -0.4767583 0 0 128 0.0
-0.36925074 0.11907122 0.26157632 0 192 255 0.31459936
0.13827948 0.15928791 0.8265793 0 0 192 0.06336186
-0.27864644 0.15928791 0.7908085 0 0 128 0.0
-0.14782545 -0.15771545 -0.88749236 255 240 0 0.64016503
0.26940495 0.06070524 0.067577966 0 0 128 0.0
0.39480552 0.031004578 0.74036 0 0 200 0.07123586
-0.16335587 -0.07870315 -0.7116027 128 0 0 1.0
0.33672377 0.15928791 -0.10337851 0 0 128 0.0
-0.21693076 0.15928791 -0.21556298 0 0 128 0.0
0.38942572 0.06070524 -0.5000844 255 8 0 0.8668843
0.3438698 -0.2893079 0.7504294 128 0 0 1.0
0.098529704 -0.3228861 -0.75060135 255 36 0 0.8412169
0.11115705 -0.2764978 0.881697 174 255 82 0.54683554
-0.008031337 0.06070524 -0.39122933 216 0 0 0.9171627
0.27713972 -0.16238473 0.72687995 0 140 255 0.26557356
-0.12728062 -0.21841606 0.7350005 0 0 128 0.0
-0.2177834 0.15928791 -0.46474 226 255 30 0.5994665
-0.069320686 0.15928791 0.24054426 0 0 128 0.0
0.2883257 -0.38685519 0.7810233 128 0 0 1.0
0.26183262 0.15928791 0.32300776 0 0 128 0.0
0.05707464 0.15928791 -0.67294925 255 208 0 0.6724972
-0.16500026 -0.07137442 0.89787704 0 168 255 0.2911059
-0.1857278 0.14219429 0.89787704 128 0 0 1.0
-0.06582888 0.15928791 -0.2258963 0 120 255 0.24640378
-0.18150516 0.06070524 0.640275 0 56 255 0.18123725
0.15072413 0.06070524 0.060695857 0 0 128 0.0
0.15088654 -0.20061192 0.7321583 146 255 110 0.5179195
0.21706846 0.06070524 -0.16962136 0 0 128 0.0
-0.008051637 0.06070524 -0.6226022 222 255 34 0.5952056
-0.29257306 -0.06229978 0.7204039 0 244 255 0.36556348
-0.263786 -0.092061356 -0.7121306 0 120 255 0.2469527
-0.118571416 0.15928791 0.31072554 0 0 128 0.0
0.26954708 0.15928791 -0.70847636 128 0 0 1.0
0.32155877 -0.22274023 -0.7267677 122 255 134 0.49599048
-0.36925074 0.009952223 -0.7993242 62 255 194 0.43687978
-0.11199383 -0.27024505 0.74580073 0 0 128 0.0
-0.3245678 0.15928791 0.43216738 230 255 26 0.60261756
0.23454781 0.15928791 0.3681374 0 0 128 0.0
-0.23207547 0.06070524 0.28788668 0 112 255 0.23672374
-0.30047026 -0.42843208 0.8015885 140 0 0 0.9910885
0.39480552 0.07345441 -0.07952459 0 0 128 0.0
-0.14922623 0.15928791 -0.7474953 190 255 66 0.5643567
0.24534805 0.15928791 -0.595155 255 52 0 0.82475245
-0.23339505 0.06070524 0.3398375 0 100 255 0.2242216
0.18466774 0.06070524 0.19444022 0 0 128 0.0
-0.13209201 0.06070524 0.70749235 0 204 255 0.3281688
-0.32430387 0.15928791 0.75643855 128 0 0 1.0
-0.06258068 -0.27038714 0.7458413 0 12 255 0.14091669
-0.2491691 -0.17239323 0.89574546 0 168 255 0.2924528
-0.34263587 0.15928791 -0.4665265 0 24 255 0.14960052
-0.20895238 0.14690417 -0.88806087 226 255 30 0.59669656
-0.3298258 -0.14494601 -0.715866 0 228 255 0.34919837
0.11751133 0.15928791 0.35000837 0 0 128 0.0
-0.2241783 0.15928791 -0.4446012 10 255 246 0.3851063
-0.18881358 -0.21025498 0.7336809 0 92 255 0.21884865
-0.22862425 0.06070524 0.66729593 0 152 255 0.27805856
-0.27836224 -0.3482423 0.8640146 255 192 0 0.6876653
-0.10247256 0.06070524 -0.3011326 0 0 172 0.04492477
-0.36925074 0.12406531 0.09043712 0 0 136 0.01095465
0.39480552 -0.113682136 -0.7766275 0 60 255 0.18575412
-0.15927532 0.06070524 0.48525503 0 20 255 0.14523263
0.20200497 0.06070524 0.61595416 0 0 128 0.0
0.39480552 0.12662326 0.21896407 0 0 128 0.0
-0.36925074 0.15376599 0.6312004 170 255 86 0.54302084
-0.063920565 0.06070524 0.44168866 0 0 128 0.0
0.374281 0.06070524 0.5524317 0 0 128 0.0
-0.21327655 0.15928791 0.09516731 0 108 255 0.2346482
-0.20261842 -0.25830796 -0.73395437 0 44 255 0.17061196
0.08044133 0.06070524 0.30238175 0 0 128 0.0
0.23373577 -0.42843208 0.82517844 128 0 0 1.0
-0.21591571 0.06070524 -0.31317118 0 0 132 0.0039653075
-0.04847134 -0.030995313 0.89787704 0 0 196 0.06737569
0.19092052 -0.021352243 0.89787704 0 16 255 0.14388551
-0.36925074 0.13240913 0.11833098 0 56 255 0.18319489
0.11454736 0.15928791 0.8009997 0 152 255 0.27476454
0.27486598 0.15928791 0.48988372 0 0 128 0.0
0.39480552 -0.2624291 0.7548348 74 255 182 0.4496864
0.1571393 0.06070524 0.56583047 0 0 128 0.0
-0.008051637 0.06070524 -0.6226022 255 48 0 0.83099896
0.24031335 0.15928791 0.4360246 0 0 128 0.0
0.3349982 0.05398555 -0.7111155 0 200 255 0.32433167
0.36904332 0.04497181 0.7202009 0 28 255 0.15668824
0.31782335 -0.2574147 -0.73375136 202 255 54 0.5732125
-0.18946323 -0.21299565 -0.72504216 0 124 255 0.24713568
0.25685883 -0.0795152 -0.8887917 255 156 0 0.7251698
0.21802261 -0.35522592 -0.8528788 192 0 0 0.93935186
0.09633717 0.034679096 0.89787704 255 164 0 0.7151717
-0.29015726 0.06070524 0.59055734 0 212 255 0.3358993
-0.3059313 0.15928791 -0.19834757 0 0 188 0.060201943
-0.111669004 0.06070524 -0.15441576 0 172 255 0.2979333
-0.3059313 0.15928791 -0.19834757 30 255 226 0.40446225
-0.17884569 0.08380802 0.89787704 255 216 0 0.66582024
-0.31502622 0.15928791 0.49548686 128 0 0 1.0
-0.030829592 0.06070524 -0.01786982 255 164 0 0.7156096
-0.32284218 -0.06355845 -0.7113388 86 255 170 0.46212876
-0.08483081 -0.41066855 0.7901792 255 0 0 0.8783067
-0.3584302 0.06070524 -0.50570786 0 0 248 0.12037174
-0.0376102 0.0987294 0.89787704 255 144 0 0.73571897
-0.089378275 -0.42528537 0.79637104 128 0 0 1.0
-0.115891665 -0.36139748 -0.76290387 255 192 0 0.689819
-0.36925074 0.14107774 0.5319072 98 255 158 0.47065622
0.39480552 0.1523855 0.70645696 0 0 164 0.036692675
0.06568235 0.06070524 -0.42381275 50 255 206 0.42507154
0.33428764 0.06070524 -0.3656092 128 0 0 1.0
-0.07776599 0.15928791 0.1034299 62 255 194 0.43606895
-0.1972386 -0.15637557 0.896659 0 156 255 0.280717
0.09639808 0.06070524 0.6210498 0 0 128 0.0
0.043574333 -0.38393185 -0.8436215 255 72 0 0.80689996
0.010726981 -0.2882116 0.87926084 222 255 34 0.59228534
0.118201576 0.15928791 -0.04960061 250 255 6 0.6196161
0.39480552 -0.07766779 -0.71913445 0 0 128 0.0
-0.11704883 0.15928791 0.5478842 0 0 128 0.0
0.16960424 0.15928791 0.8754645 255 160 0 0.72113997
0.0228265 0.15928791 0.24535565 0 0 248 0.12032759
-0.24360654 0.095663935 -0.8887917 0 228 255 0.3501514
0.0029516178 0.15928791 0.09687261 128 0 0 1.0
0.25937617 -0.3921944 0.78309405 160 0 0 0.9688944
-0.071838036 -0.34586707 0.8647252 236 0 0 0.89569336
-0.111750215 0.15928791 0.2829535 0 0 128 0.0
-0.0020221784 0.15928791 0.60176367 0 0 128 0.0
-0.32430387 0.15928791 0.75643855 0 16 255 0.1450679
0.21379997 0.15928791 0.31906933 0 0 128 0.0
0.17754202 0.15928791 0.029797416 0 0 180 0.053336054
0.1975184 0.06070524 0.117052004 0 0 128 0.0
0.36989594 -0.16475998 0.89623266 0 4 255 0.13133581
0.18943852 -0.052250676 -0.8887917 128 0 0 1.0
0.3603544 -0.04987544 -0.8887917 0 32 255 0.15859449
-0.26193854 -0.026894467 -0.8887917 0 208 255 0.3332039
0.13434103 -0.28169495 0.8807225 138 255 118 0.5109572
-0.17977956 0.15928791 0.5310748 0 20 255 0.14816454
0.0047381246 -0.10560226 -0.71284115 22 255 234 0.39931735
-0.33254617 0.15928791 0.48336703 255 56 0 0.8198274
-0.36925074 0.030233128 0.8360193 0 224 255 0.34723896
-0.13302587 0.15928791 -0.21491334 0 0 128 0.0
0.035189938 0.06070524 0.15779653 0 0 144 0.019220073
-0.36925074 -0.33216372 0.8026847 128 0 0 1.0
0.39480552 0.08555392 0.5248423 0 0 128 0.0
0.27330282 -0.29243428 0.7512617 114 255 142 0.48788488
0.26932377 0.06070524 -0.29883856 200 0 0 0.9317411
-0.11566835 0.06070524 0.6380216 0 0 192 0.066645525
-0.2278731 -0.08901616 -0.7119681 50 255 206 0.4267095
-0.054582004 0.06070524 -0.16389641 0 52 255 0.17694588
-0.09607768 0.06070524 -0.21178697 90 255 166 0.46440735
-0.36925074 -0.0777693 -0.76006174 0 184 255 0.30858505
0.39480552 0.062735364 -0.35458565 0 104 255 0.23128042
0.15659118 0.013403426 0.89787704 0 96 255 0.21983783
0.24603829 0.15928791 -0.86991155 62 255 194 0.43632224
0.39480552 -0.2577395 0.8742465 230 255 26 0.6029918
0.1523076 -0.3983254 0.8476113 128 0 0 1.0
0.11182699 0.15928791 0.6343471 0 0 216 0.0897451
-0.034788325 0.15928791 -0.8623798 128 0 0 1.0
-0.18172848 0.15928791 0.7310823 0 64 255 0.18880734
-0.30329213 0.06070524 -0.04862615 0 0 128 0.0
-0.18178937 0.023127707 -0.7111155 238 255 18 0.6088409
0.32141668 0.15928791 0.1875784 0 0 128 0.0
0.1771969 0.06070524 0.51438725 0 0 128 0.0
-0.04847134 -0.030995313 0.89787704 0 20 255 0.14713508
-0.069320686 0.15928791 0.24054426 0 0 128 0.0
0.11781585 0.06070524 -0.03806952 0 72 255 0.19999301
-0.20631322 0.15928791 0.86846066 14 255 242 0.38972506
-0.2929385 0.06070524 0.1760067 0 132 255 0.2563561
0.30586594 0.15928791 0.2966162 0 0 232 0.10375807
0.39480552 0.103378385 0.22732817 0 0 128 0.0
0.20001546 0.06070524 -0.082427666 0 0 128 0.0
-0.16599503 0.06070524 -0.3282956 0 28 255 0.15423846
0.2819917 -0.09811111 -0.7124554 0 168 255 0.29134881
0.39310023 0.06070524 -0.050859284 0 0 128 0.0
0.26932377 0.06070524 -0.29883856 0 0 208 0.08012806
-0.107426055 -0.33807138 -0.75525033 128 0 0 1.0
0.2313199 -0.16406974 -0.7179976 0 172 255 0.29561302
-0.24577878 0.15928791 -0.7155818 118 255 138 0.49096367
-0.22854304 0.051265184 0.89787704 222 255 34 0.59326035
-0.021836158 0.06070524 -0.69954383 162 255 94 0.5337699
0.08172031 -0.12389365 -0.7140186 0 136 255 0.25973678
0.2883257 -0.38685519 0.7810233 255 164 0 0.7170174
-0.051171407 0.019798309 -0.7111155 110 255 146 0.4855158
-0.24579908 -0.13227804 0.7238348 0 0 128 0.0
-0.36925074 -0.2406459 0.76995915 0 212 255 0.33382624
-0.015583385 -0.19409522 -0.8848329 0 204 255 0.3290751
-0.08483081 -0.41066855 0.7901792 14 255 242 0.3884636
0.1352952 0.15928791 0.49520263 0 0 128 0.0
-0.3114126 0.06070524 0.6502836 255 140 0 0.73850757
-0.36925074 -0.1517469 0.8340703 0 0 212 0.08311623
-0.16463485 0.06070524 0.370066 0 176 255 0.29868174
0.39480552 0.13827614 0.34046683 0 0 248 0.1205837
-0.36925074 0.06523242 0.09331989 38 255 218 0.4131422
-0.27872765 -0.30502105 -0.7455464 190 255 66 0.56394047
0.20001546 0.06070524 -0.082427666 0 0 128 0.0
0.12313477 0.06070524 -0.06803411 0 0 128 0.0
0.34845787 0.15928791 -0.58074117 0 0 212 0.083395116
-0.09617919 -0.17089094 -0.71885026 0 28 255 0.15447351
0.24230286 0.15928791 0.25802362 0 0 128 0.0
-0.3417426 0.06070524 0.16904339 0 120 255 0.24444792
-0.36728153 0.15928791 -0.4559902 0 0 128 0.0
0.10303657 -0.3025849 -0.86696786 255 168 0 0.7121007
-0.21023136 -0.32702753 -0.8608775 255 244 0 0.63738734
0.09292657 0.15928791 0.19529288 0 8 255 0.13656639
-0.36925074 0.069272354 0.15010238 0 200 255 0.321757
0.109918684 -0.3650314 -0.84991485 128 0 0 1.0
-0.241008 0.15928791 0.11869641 0 244 255 0.36643612
0.29049793 0.06070524 0.056168687 0 0 128 0.0
0.06681922 0.15928791 -0.64103574 26 255 230 0.40135956
-0.36925074 0.13529187 0.7884535 0 112 255 0.23794168
0.38410679 0.15928791 0.75511897 0 136 255 0.2588591
-0.05642942 0.06070524 -0.61667424 150 255 106 0.52399445
0.13795465 0.06070524 -0.42137665 0 84 255 0.20937781
-0.34220955 -0.024478624 -0.8887917 0 68 255 0.19575052
0.31735644 0.06070524 -0.42543685 94 255 162 0.46769428
-0.2791946 0.15839465 -0.8768951 0 28 255 0.15470688
-0.28228036 0.012368065 -0.8887917 0 188 255 0.31142262
-0.03821923 0.06070524 -0.13514991 0 196 255 0.31856704
-0.2177834 0.15928791 -0.46474 0 176 255 0.29995048
0.1942093 0.06070524 -0.39431512 0 84 255 0.20937178
-0.19029558 -0.28185737 -0.8715965 0 144 255 0.26884815
-0.34894952 0.15928791 -0.35003817 0 0 128 0.0
-0.12782876 -0.3888041 0.85110307 128 0 0 1.0
-0.16780184 0.06429856 -0.8887917 34 255 222 0.41130412
-0.2678665 -0.31368962 -0.747881 255 188 0 0.69367063
0.39480552 0.07345441 -0.07952459 0 48 255 0.1725536
-0.08673912 -0.22160336 0.7356298 0 128 255 0.25224653
0.39480552 0.09491278 0.2949109 0 0 128 0.0
0.062961996 -0.42420945 -0.82863915 255 64 0 0.8131446
0.10031621 0.06070524 -0.28960148 26 255 230 0.40324783
0.05344072 0.15928791 0.76646733 106 255 150 0.481752
-0.36925074 -0.2140513 0.8412367 206 255 50 0.57865065
-0.34076816 0.06070524 -0.6485066 255 24 0 0.85484517
0.006301317 0.15928791 0.5524317 0 0 192 0.06355824
0.12733713 0.15928791 -0.5179292 255 192 0 0.68642884
0.39480552 0.06291808 0.13193278 0 0 128 0.0
-0.18166757 -0.32069355 -0.7499314 154 255 102 0.5259431
0.23134023 0.15928791 -0.67073643 255 228 0 0.6546769
-0.16599503 0.06070524 -0.3282956 0 0 136 0.00822412
0.3097638 0.15928791 0.19874407 0 0 128 0.0
-0.15663616 -0.3645036 0.8591626 230 255 26 0.60216784
0.095768735 0.15928791 0.6964485 0 140 255 0.26422796
0.39480552 -0.2543492 -0.83968306 128 0 0 1.0
0.3873956 -0.36592466 -0.76446706 224 0 0 0.907075
-0.34245315 0.06070524 0.676736 0 160 255 0.28337103
-0.36925074 -0.012643025 0.7720908 162 255 94 0.53619355
0.26402515 -0.07161803 0.72056633 0 0 196 0.069084406
0.29924774 -0.36135685 0.8601371 128 0 0 1.0
0.37497124 0.003171622 0.89787704 86 255 170 0.46256706
0.33118153 0.15928791 -0.5538014 255 228 0 0.6518581
-0.039376404 0.044484586 0.7202009 0 0 128 0.0
-0.10878623 0.15928791 -0.6677724 128 0 0 1.0
0.08476549 0.15928791 0.6690013 0 0 128 0.0
-0.04688785 0.15928791 0.4225243 0 0 188 0.059590697
-0.18199238 0.06070524 -0.533013 70 255 186 0.44637954
0.22841685 -0.17982347 -0.71992624 0 248 255 0.37054875
0.39480552 0.09426314 0.4880363 0 0 128 0.0
-0.36925074 0.14142285 0.7498 142 255 114 0.5161512
-0.36925074 0.012611678 0.8505347 0 0 128 0.0
-0.30026725 0.15928791 -0.4311212 0 12 255 0.13846914
-0.34251404 0.06070524 -0.19473395 0 0 128 0.0
-0.20351167 0.06070524 -0.5073928 255 236 0 0.64553994
-0.2847977 -0.30226007 0.87613446 128 0 0 1.0
-0.22178274 0.15928791 -0.28409985 0 28 255 0.15555342
-0.32371512 -0.3569109 -0.85237134 126 255 130 0.5010071
0.09976808 0.15928791 0.21394968 0 0 160 0.03434558
0.28245863 0.06070524 -0.51399076 0 0 248 0.11925756
0.2765916 0.15928791 -0.82474136 62 255 194 0.43621746
-0.1989236 0.06070524 -0.1953633 0 0 128 0.0
0.2343448 -0.2933275 0.7515054 54 255 202 0.43047994
-0.36925074 -0.06930369 -0.7756125 255 228 0 0.65216595
0.26595378 0.15928791 0.52064 0 0 128 0.0
0.21982943 -0.07850014 0.89787704 0 60 255 0.18638727
-0.25497523 -0.051540136 -0.7111358 255 12 0 0.8641374
-0.17249142 -0.28023323 -0.73902965 255 52 0 0.8245318
-0.21585481 -0.17547901 0.8954815 0 8 255 0.13339753
-0.36925074 -0.29070866 0.7912551 0 200 255 0.32520518
0.03271319 -0.22304475 -0.7268083 0 140 255 0.26540065
-0.3484623 -0.012764831 0.7202009 54 255 202 0.4280339
0.06448458 0.014154578 -0.7111155 128 0 0 1.0
-0.25641662 0.06070524 -0.11440206 0 0 128 0.0
0.11004049 -0.42843208 -0.7985731 255 124 0 0.7560563
-0.18319015 0.15928791 -0.27585757 0 0 128 0.0
-0.027439293 0.15928791 -0.36091962 198 255 58 0.56936884
0.1484301 0.15928791 0.53206956 0 252 255 0.3747953
-0.08521653 -0.09524864 0.89787704 0 60 255 0.18626288
-0.06491532 0.15928791 -0.6029912 128 0 0 1.0
-0.08600828 0.15928791 -0.709532 50 255 206 0.42501214
-0.28646243 -0.2847807 -0.7401259 114 255 142 0.48756105
-0.36925074 -0.12935466 0.77142084 0 0 152 0.024752075
0.15072413 0.06070524 0.060695857 0 36 255 0.16345449
0.2903152 0.06070524 -0.117792375 0 0 152 0.025030354
0.026135597 0.15928791 -0.2769741 0 0 208 0.080502585
-0.061991952 0.06070524 -0.18837968 0 88 255 0.21467647
0.31969106 -0.06629912 -0.71139973 78 255 178 0.45102394
-0.2892031 -0.33411267 -0.75403225 128 0 0 1.0
0.09061223 0.15386748 -0.88406146 128 0 0 1.0
0.26932377 0.06070524 -0.29883856 0 116 255 0.23953831
-0.2605987 -0.376867 0.7773285 128 0 0 1.0
-0.19886269 0.06070524 0.61394435 255 148 0 0.7329368
0.1771969 0.06070524 0.51438725 0 0 128 0.0
-0.20615083 0.06070524 0.51491505 228 0 0 0.9055841
-0.2713177 -0.1970795 -0.7225045 0 84 255 0.2080763
0.21205407 0.15928791 0.6430969 0 12 255 0.13836321
0.0047381246 -0.10560226 -0.71284115 0 132 255 0.2553535
0.16231611 0.06070524 0.35376412 0 0 128 0.0
-0.31941128 -0.15381762 0.7258243 0 148 255 0.2715206
0.13086954 0.06070524 -0.46888146 255 228 0 0.651926
0.27902776 0.15928791 -0.38452995 0 116 255 0.24027431
-0.26894248 0.15928791 -0.82419324 128 0 0 1.0
-0.11704883 0.15928791 0.5478842 0 0 212 0.083958305
0.36859667 -0.059396703 0.89787704 0 16 255 0.14307933
0.041767526 0.06070524 -0.27886212 0 80 255 0.20426415
-0.3066012 0.06070524 -0.4996175 0 0 252 0.121896386
-0.01533977 0.15928791 -0.4461238 238 255 18 0.60870063
0.36114612 -0.06359905 0.7204242 0 0 128 0.0
-0.07654791 0.15928791 0.27160513 0 0 128 0.0
-0.16914172 -0.040618084 -0.7111155 128 0 0 1.0
0.22364606 0.06070524 0.5170264 0 0 128 0.0
0.0138533665 0.043652225 0.7202009 0 0 180 0.05460146
-0.36925074 0.13981906 0.37639996 2 255 254 0.37686384
-0.36925074 -0.0727346 -0.81773746 110 255 146 0.48449177
0.22841685 -0.17982347 -0.71992624 70 255 186 0.44645306
0.24031335 -0.36401635 -0.85025996 255 20 0 0.8559335
0.170599 0.15928791 -0.8439666 128 0 0 1.0
-0.22549787 -0.42843208 -0.811302 128 0 0 1.0
-0.17425762 -0.014997965 -0.8887917 128 0 0 1.0
0.24579468 0.15928791 0.60917354 0 0 128 0.0
0.14479616 0.15928791 -0.60238224 128 0 0 1.0
-0.071838036 -0.34586707 0.8647252 255 196 0 0.68315333
0.088846035 0.15928791 0.16339967 0 180 255 0.30474666
0.31108335 0.06070524 -0.019899942 0 0 128 0.0
0.09252055 0.15928791 -0.5845375 128 0 0 1.0
0.09061223 0.15386748 -0.88406146 128 0 0 1.0
0.38841066 0.06070524 0.14470226 0 0 128 0.0
0.08011651 0.06070524 0.3893521 0 0 128 0.0
-0.33561164 0.06070524 -0.008023735 0 0 128 0.0
0.11375561 -0.16506448 -0.7181194 0 92 255 0.21708047
0.25937617 -0.3921944 0.78309405 255 108 0 0.7712494
-0.28471652 0.15928791 -0.2910429 0 0 216 0.08939145
-0.07685243 0.15928791 0.2530295 0 0 244 0.11663187
0.39480552 0.12124345 -0.772953 0 0 208 0.07870411
-0.043132123 -0.011364044 0.89787704 154 255 102 0.52879936
0.16134165 0.06070524 0.16607943 0 0 128 0.0
0.12628146 0.15928791 -0.2809938 0 72 255 0.1991234
0.042884093 0.15928791 0.46064997 0 0 128 0.0
-0.36925074 0.122705124 0.13755624 0 64 255 0.19043596
0.17774503 0.15928791 -0.5987686 150 255 106 0.5223474
0.29857782 0.06070524 0.27091488 0 0 128 0.0
0.25722426 0.15928791 -0.45570597 90 255 166 0.46283898
-0.17529298 0.12542549 -0.8887917 158 255 98 0.5326343
-0.024779834 0.15928791 -0.06068507 126 255 130 0.49905092
0.28398123 0.15928791 0.8712216 182 255 74 0.55632275
-0.36925074 0.100495614 -0.7972332 0 236 255 0.36000806
-0.15123606 0.15928791 0.42047387 0 0 128 0.0
-0.08521653 -0.09524864 0.89787704 0 0 132 0.00658389
0.13501097 0.15928791 0.30524424 0 0 128 0.0
0.39480552 0.08512761 0.87144494 122 255 134 0.49787843
0.39480552 0.10410922 -0.06557766 0 188 255 0.313185
0.24881956 0.15928791 0.33480278 0 0 128 0.0
-0.00082440645 -0.029066697 -0.8887917 118 255 138 0.49172318
-0.36925074 -0.20968655 -0.87385 0 160 255 0.2828491
-0.016557842 -0.22176576 0.8907513 128 0 0 1.0
-0.23798312 0.06070524 -0.1302776 0 0 128 0.0
-0.26193854 -0.026894467 -0.8887917 0 240 255 0.36135983
-0.19439642 0.15928791 -0.42998433 0 72 255 0.19966392
-0.2025169 0.02523904 0.7202009 0 20 255 0.14574894
-0.21023136 -0.32702753 -0.8608775 134 255 122 0.5069914
0.374281 0.06070524 0.5524317 0 0 248 0.118635625
-0.2478901 0.15928791 -0.36891833 0 0 180 0.05143235
0.03813361 -0.27810162 -0.8723274 128 0 0 1.0
-0.36925074 0.030233128 0.8360193 138 255 118 0.51050353
0.3792548 0.15928791 0.43488774 0 0 128 0.0
-0.286097 0.15928791 -0.27918696 58 255 198 0.43152654
-0.22332565 -0.42134696 0.83890206 242 255 14 0.6152142
0.33820575 0.15928791 0.8617409 128 0 0 1.0
0.0866738 -0.0058421185 0.7202009 0 0 128 0.0
0.09225663 0.15928791 -0.7210834 142 255 114 0.51490635
-0.36925074 0.07142428 -0.47418007 0 224 255 0.34609556
0.35842577 0.06070524 0.6479286 0 0 156 0.028480852
-0.00082440645 -0.029066697 -0.8887917 142 255 114 0.5149093
-0.17334406 0.025218727 0.89787704 0 160 255 0.2845173
0.103259884 0.15928791 0.108545795 0 176 255 0.2988349
-0.2713177 -0.1970795 -0.7225045 0 0 128 0.0
0.33982986 0.06070524 -0.40874928 0 68 255 0.19220611
-0.27054626 -0.25966814 0.884864 0 180 255 0.3039957
-0.32341063 0.15928791 0.62766796 0 96 255 0.2217886
-0.12320009 0.06070524 -0.67171085 255 48 0 0.8299001
0.34931052 0.15928791 -0.66574234 74 255 182 0.45017353
-0.3057283 -0.32022664 -0.86262345 102 255 154 0.47548062
-0.36925074 0.102952056 -0.030964099 26 255 230 0.4016309
0.3232438 0.06070524 0.517067 0 0 128 0.0
-0.12878291 0.15928791 0.8514279 0 180 255 0.3031768
0.2834737 0.06070524 0.17722479 0 0 128 0.0
-0.28185403 0.06070524 -0.23223029 0 0 128 0.0
0.096195064 0.15928791 0.6710923 0 0 184 0.057624854
0.0598356 0.15928791 0.60489005 0 0 128 0.0
-0.286097 0.15928791 -0.27918696 0 188 255 0.31187284
0.36490184 0.06070524 0.669793 0 0 236 0.107415184
0.17774503 0.15928791 -0.5987686 255 84 0 0.7936979
-0.2999424 0.06070524 0.038973566 0 0 148 0.020372098
0.39480552 0.09483157 0.7981169 34 255 222 0.40914473
0.39480552 -0.32887495 0.8428405 255 40 0 0.8367436
0.010726981 -0.2882116 0.87926084 255 148 0 0.73242533
-0.3502488 0.050554644 -0.8887917 18 255 238 0.392569
0.15951453 0.06070524 -0.04562157 0 0 200 0.07381579
-0.19208209 0.15928791 -0.038800366 0 0 128 0.0
-0.30773807 0.15928791 -0.736695 22 255 234 0.39833435
-0.15925503 -0.41777393 0.79318374 128 0 0 1.0
-0.17155756 0.15928791 -0.7714507 255 152 0 0.7291907
0.3660387 -0.2054842 -0.8835946 2 255 254 0.37806275
-0.1907625 0.06651139 0.89787704 2 255 254 0.37805277
-0.36925074 -0.07929189 0.8555288 0 140 255 0.2627766
0.28398123 0.15928791 0.8712216 128 0 0 1.0
0.33103946 0.15928791 -0.51411253 0 0 128 0.0020235176
0.076076575 0.06070524 0.037978806 255 128 0 0.7527185
0.03171843 0.15928791 0.5869844 0 228 255 0.3504482
-0.076324604 0.06070524 -0.20204239 0 216 255 0.34076217
-0.19029558 -0.28185737 -0.8715965 128 0 0 1.0
0.21982943 -0.07850014 0.89787704 0 160 255 0.28556192
0.3349982 0.05398555 -0.7111155 128 0 0 1.0
-0.071838036 -0.34586707 0.8647252 255 136 0 0.7429865
-0.3603182 0.15928791 -0.2375086 0 20 255 0.1469498
-0.19859877 0.10575363 -0.8887917 82 255 174 0.45535514
0.26471537 0.06070524 -0.18072613 2 255 254 0.3779937
-0.27996603 0.06070524 0.65345055 0 180 255 0.30212483
0.2732013 -0.08148442 0.720749 0 0 128 0.0
-0.16264534 0.15928791 -0.8482705 0 224 255 0.34888047
0.1942093 0.06070524 -0.39431512 0 208 255 0.3305959
-0.25146312 0.15928791 0.28823182 0 116 255 0.24253607
0.06884934 0.06070524 0.14135256 0 96 255 0.22162715
0.36366346 0.15928791 0.19506955 0 0 128 0.0
-0.032291282 0.15928791 0.012135365 238 255 18 0.61028296
0.29916653 -0.42843208 -0.8112817 255 228 0 0.6548908
-0.27748927 0.15928791 -0.805374 42 255 214 0.41899008
-0.07825322 -0.13913985 -0.71535844 0 0 248 0.120550595
-0.13763423 -0.05003785 -0.8887917 0 244 255 0.36725157
0.23355305 0.15928791 -0.6456238 18 255 238 0.39332414
0.23454781 0.15928791 0.3681374 0 0 128 0.0
0.39480552 -0.22083192 -0.80086714 0 220 255 0.34299353
-0.21149004 0.06070524 -0.19913931 0 0 128 0.0
-0.046319414 -0.14857991 0.7252762 0 112 255 0.2379997
-0.071838036 -0.34586707 0.8647252 250 255 6 0.62087333
-0.17529298 0.12542549 -0.8887917 255 212 0 0.6690822
-0.2278731 -0.08901616 -0.7119681 168 0 0 0.96442395
0.39480552 0.1454222 -0.31063354 0 0 232 0.10480012
0.1267687 0.06070524 0.24168113 0 0 128 0.0
-0.1065531 0.15928791 0.7615951 146 255 110 0.5214993
-0.21678866 0.15928791 0.5768743 0 32 255 0.15730424
-0.36925074 -0.36249375 -0.83611006 0 208 255 0.33100513
-0.066742435 0.15928791 0.4058164 0 0 128 0.0
0.38703015 -0.13526233 0.8975116 0 0 224 0.097780675
0.39480552 0.07294687 -0.46474 0 0 128 0.0
-0.2877008 -0.29480952 0.7518911 180 0 0 0.95065975
0.39310023 0.06070524 -0.050859284 0 0 128 0.0
0.2652026 0.06070524 -0.014357711 0 0 128 0.0
-0.020435374 0.15928791 0.38147527 0 0 128 0.0
0.29299495 -0.09137111 0.89787704 0 0 248 0.11868937
-0.31459987 -0.3565049 0.8615785 0 100 255 0.22633551
0.029079273 0.15928791 -0.046555426 255 120 0 0.75883317
0.39480552 -0.15716732 -0.8133727 0 44 255 0.17046478
-0.26894248 0.15928791 -0.82419324 128 0 0 1.0
-0.13962376 0.06070524 0.11278876 0 0 128 0.0
0.1874287 0.15928791 0.09811098 0 0 172 0.04329139
0.0866738 -0.0058421185 0.7202009 0 0 128 0.0
-0.081420206 -0.081626534 0.720749 0 0 208 0.07855189
-0.2757637 -0.14100756 -0.88832474 255 68 0 0.80886334
0.36114612 -0.06359905 0.7204242 0 0 128 0.0
0.3603544 -0.04987544 -0.8887917 0 104 255 0.23001532
0.16410261 -0.14998071 0.725398 0 52 255 0.18038051
-0.043050922 0.06070524 -0.4059274 0 52 255 0.17805839
0.2631928 0.06070524 0.09733953 0 0 128 0.0
0.37328625 0.06070524 -0.6167149 58 255 198 0.43185005
0.37604722 0.06070524 0.38184068 0 0 128 0.0
0.10311778 0.046169575 0.7202009 0 0 160 0.033148788
-0.34076816 0.06070524 -0.6485066 255 228 0 0.6520516
0.071691506 0.15928791 -0.2543992 2 255 254 0.3787755
0.19236189 -0.3531349 0.86257327 128 0 0 1.0
-0.3127931 0.15928791 -0.13293707 0 8 255 0.13408254
0.20858257 -0.26665172 -0.73588294 128 0 0 1.0
0.3890603 0.00018734542 0.7202009 0 0 180 0.053252447
-0.24360654 0.095663935 -0.8887917 114 255 142 0.48654342
-0.29058358 0.06070524 0.34363383 34 255 222 0.408638
0.1904942 -0.24564 0.74029905 0 248 255 0.3695207
0.12888002 0.06070524 -0.4395665 255 248 0 0.63484716
0.056425005 -0.33719844 0.86728317 184 0 0 0.94607574
0.11115705 -0.2764978 0.881697 255 220 0 0.6592121
-0.27162224 0.15928791 -0.5987889 66 255 190 0.44224524
0.29433483 0.06070524 0.3214649 0 0 128 0.0
0.3712764 -0.09386816 0.89787704 0 0 128 0.0
0.26384243 -0.42843208 -0.81607276 128 0 0 1.0
0.39174005 -0.41196778 -0.78162163 128 0 0 1.0
-0.088200815 0.15183738 0.894771 0 252 255 0.3741752
-0.3367485 -0.42843208 -0.813596 128 0 0 1.0
-0.16930413 0.06070524 0.28404975 0 28 255 0.15362869
-0.07573587 0.15928791 0.18887769 142 255 114 0.51491755
0.3893242 0.050067406 0.7202009 0 136 255 0.26063108
0.06279958 -0.10680003 0.72198737 0 0 132 0.0072170966
-0.36925074 0.1509035 -0.7509059 242 255 14 0.6152239
-0.048714958 -0.23086071 0.7374366 0 108 255 0.23201135
0.28245863 0.06070524 -0.51399076 0 220 255 0.34372663
-0.07013273 0.06070524 0.5256138 0 0 128 0.0
-0.27489072 -0.021068025 0.89787704 255 220 0 0.6590493
0.15648967 0.15928791 0.6182888 0 200 255 0.32406393
0.17681116 -0.4013503 -0.7775208 128 0 0 1.0
-0.18704739 0.06070524 -0.6375439 128 0 0 1.0
0.3289484 0.06070524 -8.5961976e-05 0 0 128 0.0
0.39480552 0.13052109 0.4692374 0 148 255 0.27190125
0.33428764 0.06070524 -0.3656092 230 255 26 0.6037533
0.2734043 -0.33220437 -0.85951734 255 156 0 0.72359455
-0.3599731 0.15928791 -0.10451538 0 0 244 0.11648497
-0.061991952 0.06070524 -0.18837968 144 0 0 0.9848504
-0.08880985 0.15928791 -0.74918026 128 0 0 1.0
0.3434232 0.15928791 -0.7482667 0 0 212 0.08599855
0.38942572 0.06070524 -0.5000844 0 0 128 0.0
0.3943995 -0.15844631 0.8965372 42 255 214 0.416992
0.36132884 0.06070524 -0.40225288 0 0 128 0.0
0.17169528 -0.20063221 0.8932687 114 255 142 0.48664385
-0.0543587 0.15928791 0.34588724 0 0 128 0.0
-0.23887637 0.15928791 -0.21099521 0 0 128 0.0
-0.15448426 0.04525602 -0.7111155 128 0 0 1.0
0.1319049 -0.024235012 0.89787704 0 0 128 0.0
0.23883136 0.15928791 0.8259905 110 255 146 0.48480564
-0.16810636 0.15928791 -0.4159156 216 0 0 0.915191
-0.36925074 -0.1517469 0.8340703 0 0 128 2.5825395e-05
-0.23834854 -0.23242392 0.7377412 0 0 232 0.10486177
0.1738472 0.06070524 0.4023449 0 0 128 0.0
0.0547603 0.15928791 0.5912882 0 0 128 0.0
-0.2476465 0.06070524 -0.19367829 0 0 128 0.0
0.044812713 0.15928791 -0.41258618 255 232 0 0.6507092
0.15602274 0.06070524 -0.09491291 0 0 128 0.0
0.39480552 0.13157676 0.116645984 0 0 224 0.09450755
-0.0846684 -0.045815196 -0.7111155 128 0 0 1.0
-0.008031337 0.06070524 -0.39122933 128 0 0 1.0
0.05662801 0.15928791 0.386713 0 0 128 0.0
-0.18881358 -0.21025498 0.7336809 0 96 255 0.22143154
-0.2811841 0.06070524 -0.6553075 66 255 190 0.43975076
0.13827948 0.15928791 0.8265793 128 0 0 1.0
0.33363798 0.15928791 -0.8566549 0 152 255 0.27726156
0.39480552 0.1254661 -0.4059071 0 32 255 0.16059616
0.08797307 0.15928791 0.761189 0 56 255 0.18247698
0.012635294 0.06070524 0.61311203 0 0 128 0.0
-0.36925074 0.13307907 0.62736344 22 255 234 0.39791527
-0.27864644 0.15928791 0.7908085 0 0 128 0.0
-0.2343086 0.15928791 0.7575957 255 172 0 0.70598173
0.25899044 0.15928791 -0.8500976 106 255 150 0.47992685
0.3039779 0.15928791 -0.37805387 0 96 255 0.22112815
-0.3352056 0.15928791 -0.5446659 146 255 110 0.5190039
0.25517383 0.06070524 0.18885739 0 0 128 0.0
-0.14122756 0.06070524 0.21051878 0 0 128 0.0
0.11290296 0.06070524 -0.16647466 0 0 128 0.0
0.37992474 0.06070524 -0.28178552 22 255 234 0.39818686
-0.13274166 0.06070524 -0.25060287 0 0 128 0.0
0.39480552 0.09483157 0.7981169 0 164 255 0.2872156
-0.053120323 -0.38921013 -0.8418553 128 0 0 1.0
0.1523076 -0.3983254 0.8476113 255 68 0 0.8082962
0.26418757 -0.05649363 -0.711217 0 184 255 0.30969787
-0.31086448 0.15928791 -0.82943094 210 255 46 0.5815875
0.39480552 0.09296387 0.7639703 128 0 0 1.0
-0.27864644 0.15928791 0.7908085 0 192 255 0.3163698
-0.21833155 0.06070524 0.28053766 0 0 128 0.0
-0.17884569 0.08380802 0.89787704 254 255 1 0.6245225
-0.3065403 -0.058422245 0.89787704 46 255 210 0.4232701
-0.14999767 0.06070524 0.07742405 134 255 122 0.5097068
0.11048711 0.15928791 -0.65212023 30 255 226 0.40451446
-0.29379117 0.15928791 -0.18651195 0 0 240 0.11225771
0.10435615 0.15928791 0.07839851 0 168 255 0.29261962
0.3705659 0.15928791 -0.49230903 0 48 255 0.1761642
-0.29978 0.15928791 0.4590868 128 0 0 1.0
0.2008275 0.15928791 -0.52740985 0 184 255 0.3073825
0.20044178 -0.41357157 0.7913972 255 8 0 0.86867553
0.062961996 -0.42420945 -0.82863915 128 0 0 1.0
0.27902776 0.15928791 -0.38452995 34 255 222 0.4082853
-0.030788992 -0.24986264 0.88658965 255 36 0 0.83946747
0.11290296 0.06070524 -0.16647466 0 0 128 0.0
-0.32284218 -0.06355845 -0.7113388 58 255 198 0.43291727
-0.086800024 0.15928791 0.82322955 0 152 255 0.27453816
0.16146345 0.15928791 0.1252131 0 24 255 0.14937487
-0.11591196 -0.3046353 -0.74544483 128 0 0 1.0
-0.13278225 0.15928791 0.23816901 0 0 128 0.0
-0.27282 -0.42843208 -0.82297516 152 0 0 0.98024225
0.067915484 0.15928791 0.009902232 128 0 0 1.0
0.37994504 0.15928791 0.86232966 255 172 0 0.70760024
-0.08834292 0.15928791 -0.5109253 128 0 0 1.0
-0.31459987 -0.3565049 0.8615785 14 255 242 0.38844478
0.081273675 0.15928791 0.3790797 0 0 128 0.0
0.014157885 -0.09711635 -0.7123945 0 0 152 0.026498761
-0.29015726 0.06070524 0.59055734 0 0 128 0.0
-0.21603751 0.06070524 0.02817332 246 255 10 0.61623
-0.3654341 0.1589428 -0.8747433 54 255 202 0.4298923
0.39480552 0.08494489 -0.638559 0 144 255 0.26845893
-0.34251404 0.06070524 -0.19473395 0 0 128 0.0
-0.17638925 -0.4264019 0.7968379 255 116 0 0.7608872
0.29689282 -0.1701601 0.89592814 50 255 206 0.42532298
-0.2709523 0.15928791 0.32388073 0 0 128 0.0
0.37497124 0.003171622 0.89787704 0 52 255 0.17736845
-0.31232613 0.15928791 -0.41423059 0 0 148 0.020326847
-0.076913334 0.15928791 -0.2900684 0 0 232 0.10247836
-0.10878623 0.15928791 -0.6677724 255 168 0 0.71195275
0.29047763 0.15928791 0.53651553 0 0 236 0.108689204
-0.36925074 -0.1834168 0.74320215 0 160 255 0.28340253
0.33982986 0.06070524 -0.40874928 0 48 255 0.17438391
0.39480552 0.13675357 0.5455293 0 188 255 0.31146047
0.39480552 -0.084306285 0.8731299 0 0 128 0.0
0.36770344 0.15928791 -0.12773997 0 0 128 0.0
-0.21902178 0.06070524 0.4790429 128 0 0 1.0
-0.2813871 -0.4003149 0.84688044 128 0 0 1.0
0.13287936 -0.07525195 -0.7115621 50 255 206 0.42505842
-0.36925074 -0.07636852 -0.8775042 0 140 255 0.2645909
0.029485296 0.06070524 -0.24000566 0 0 128 0.0
-0.36925074 0.11669597 0.19042057 0 164 255 0.2864798
0.09292657 0.15928791 0.19529288 0 0 196 0.06986496
-0.009269709 -0.17344889 0.7282402 0 92 255 0.21714845
-0.19648744 0.15928791 0.31393313 0 88 255 0.21394216
-0.3057283 -0.32022664 -0.86262345 144 0 0 0.9859992
0.14000508 0.06070524 0.28161362 0 0 128 0.0
-0.21559088 -0.38782963 -0.8423222 255 108 0 0.7697639
-0.08734816 0.06070524 -0.17315377 166 255 90 0.53762907
-0.18881358 -0.21025498 0.7336809 0 64 255 0.19076422
0.24589619 0.06070524 0.42865527 0 80 255 0.20564972
0.13823886 0.06070524 7.644751e-05 214 255 42 0.5870766
0.39480552 0.14359508 -0.7271534 0 220 255 0.34142527
0.20580131 -0.061467424 -0.8887917 0 228 255 0.34909242
0.39480552 0.07479428 -0.7965024 66 255 190 0.4422236
-0.21591571 0.06070524 -0.31317118 0 0 236 0.109325014
-0.013370554 -0.22097403 0.735508 0 80 255 0.20600352
0.006788546 0.15928791 -0.5287092 94 255 162 0.47016412
-0.13316797 0.13876338 0.89787704 255 132 0 0.7490129
0.36835307 -0.2021548 -0.72331655 0 248 255 0.37231818
-0.07776599 0.15928791 0.1034299 54 255 202 0.42914835
-0.0035041654 0.15928791 -0.12274587 128 0 0 1.0
0.39480552 -0.3582102 -0.8024709 255 40 0 0.83799046
-0.3462292 -0.1416775 0.8973898 86 255 170 0.46127492
0.12421073 0.06070524 0.62046105 0 0 128 0.0
-0.10525382 0.06070524 0.36241245 0 0 128 0.0
0.39480552 0.008287531 -0.8853405 0 180 255 0.30578867
0.23927799 0.15928791 -0.2124366 0 0 128 0.0
0.39480552 -0.059985436 -0.87985915 0 0 216 0.087717205
-0.15277895 0.15928791 -0.23817854 0 0 128 0.0
-0.29746568 0.06070524 -0.22274962 0 0 128 0.0
-0.26149195 0.031877536 -0.8887917 0 188 255 0.31048474
-0.12451967 0.06070524 0.17503226 0 136 255 0.26102123
0.3521933 -0.033512663 -0.7111155 255 216 0 0.66376203
0.13637117 -0.3666758 0.7737961 255 184 0 0.6945189
-0.25497523 -0.051540136 -0.7111358 0 176 255 0.30180413
0.12313477 0.06070524 -0.06803411 2 255 254 0.37978107
0.12465736 0.06070524 0.4930304 0 0 128 0.0
-0.36925074 -0.26529157 0.78390604 0 52 255 0.17752372
0.39448074 0.15928791 0.63030714 128 0 0 1.0
-0.23231907 -0.19442004 0.7311838 0 12 255 0.13959761
-0.15334739 -0.20111944 -0.8841224 128 0 0 1.0
0.04172693 -0.23333746 -0.8800216 98 255 158 0.47325113
0.21820533 0.06070524 0.17941731 0 0 128 0.0
-0.06639732 0.06070524 -0.051184103 214 255 42 0.5868701
-0.1065531 0.15928791 0.7615951 0 208 255 0.32982373
0.25529563 -0.2743459 0.882103 192 0 0 0.9400962
0.25886866 -0.050078448 0.7202009 0 0 128 0.0
0.39480552 0.10248513 0.85697013 0 112 255 0.23875359
0.08764826 0.06070524 0.28953108 0 0 128 0.0
-0.054683514 0.06070524 0.41308424 0 0 128 0.0
0.3660387 -0.2054842 -0.8835946 128 0 0 1.0
0.3493308 0.15928791 0.6604138 0 0 192 0.06460776
-0.11262316 -0.12135599 -0.8886495 0 200 255 0.32290936
-0.25767532 -0.4233974 0.795559 214 255 42 0.585504
0.13986297 0.15928791 0.029310187 0 68 255 0.19341888
0.10480278 -0.23215999 0.73768026 0 108 255 0.2341604
-0.17750582 0.13679418 -0.8887917 0 68 255 0.19343454
0.31778276 0.15928791 -0.6807652 0 68 255 0.19266205
-0.12728062 -0.21841606 0.7350005 0 176 255 0.30079183
-0.1806728 0.06070524 -0.16432275 0 0 184 0.056656588
0.087100126 -0.3912809 -0.84114474 128 0 0 1.0
-0.19017376 0.15928791 -0.48053434 0 236 255 0.36002988
-0.1520481 0.15928791 0.52863866 0 0 255 0.12698343
0.39480552 -0.0727346 0.8478549 0 56 255 0.18303248
0.24098329 0.030091023 -0.8887917 250 255 6 0.6201052
0.052080546 0.15928791 -0.11359002 0 184 255 0.30773526
-0.11950527 0.06070524 -0.61576074 200 0 0 0.9320531
-0.037062064 0.06070524 -0.30054384 0 148 255 0.27274317
-0.24922998 0.15928791 0.20235768 0 0 228 0.10063237
0.072605066 -0.36872622 -0.8486765 128 0 0 1.0
-0.25343233 -0.24001656 -0.8790065 118 255 138 0.49040243
-0.02171435 0.06070524 0.50076514 0 0 128 0.0
-0.111547194 0.15928791 -0.20762523 246 255 10 0.6188554
-0.10334551 0.06070524 -0.19199328 0 116 255 0.24213484
0.20001546 0.06070524 -0.082427666 0 0 160 0.033186924
0.24406908 0.06070524 0.034974225 0 0 128 0.0
-0.12957466 0.06070524 -0.47521544 128 0 0 1.0
0.3473413 -0.24127524 -0.87880343 34 255 222 0.40922448
0.39480552 -0.081281416 0.7472827 0 0 136 0.01026172
0.18578431 0.15928791 0.31908962 0 0 128 0.0
-0.22314294 -0.27203155 -0.73714167 14 255 242 0.3887301
0.28948286 0.079889886 0.89787704 0 236 255 0.35918194
0.38532487 0.033298615 0.7202009 0 0 128 0.0
0.06746885 0.15928791 0.21230528 0 168 255 0.29122108
-0.27606818 0.06070524 0.19730268 0 64 255 0.18954721
-0.36925074 -0.20968655 -0.87385 78 255 178 0.45399573
-0.20952082 0.06070524 -0.66103244 128 0 0 1.0
-0.18199238 0.06070524 -0.533013 186 255 70 0.5583245
-0.0031996479 0.09838428 -0.8887917 94 255 162 0.46786532
-0.36925074 0.075098805 0.59674925 154 255 102 0.52831143
-0.0038898885 -0.23289084 -0.72873694 0 252 255 0.3732726
-0.36925074 0.106484465 -0.8602888 0 176 255 0.3018821
0.35793853 0.15928791 0.29030254 0 0 128 0.0
-0.24817431 0.15928791 -0.80131376 0 144 255 0.26980606
-0.030788992 -0.24986264 0.88658965 154 255 102 0.5260008
-0.048714958 -0.23086071 0.7374366 0 148 255 0.27200836
-0.36925074 0.10443404 -0.73689806 0 120 255 0.24345848
0.26321313 -0.13150659 -0.88848716 0 184 255 0.30737588
0.15628664 0.15928791 -0.47917417 66 255 190 0.44238755
-0.09242346 0.15928791 0.5166001 0 0 176 0.050160076
-0.27738777 0.15928791 -0.8335318 255 220 0 0.6623763
-0.1638634 0.06070524 0.012663197 0 0 240 0.11359923
0.39480552 0.028223317 -0.8136366 18 255 238 0.39288914
-0.17490727 0.15928791 0.7487647 255 48 0 0.83009803
-0.29862285 0.06070524 -0.34776443 0 0 252 0.12159642
-0.2058057 0.06070524 -0.15873991 0 0 200 0.07088266
-0.36925074 0.11907122 0.26157632 30 255 226 0.4066403
0.21611431 0.15928791 0.16469894 0 0 128 0.0
0.21181045 0.011941736 0.7202009 0 0 128 0.0
0.04172693 -0.23333746 -0.8800216 154 255 102 0.52845466
-0.17048159 0.06070524 -0.12849112 0 92 255 0.2161625
-0.3654341 0.1589428 -0.8747433 255 180 0 0.7004393
0.38493913 0.15928791 0.3082488 0 0 128 0.0
0.3168286 -0.06702995 -0.8887917 255 132 0 0.7463551
0.23134023 -0.15716732 -0.887533 0 172 255 0.29623413
-0.3096464 0.15928791 -0.40034458 0 0 128 0.0
-0.30676362 -0.39501628 -0.839744 162 255 94 0.53381044
-0.09197684 -0.28340024 -0.73976046 255 132 0 0.74839807
0.026135597 0.15928791 -0.2769741 0 0 244 0.11422804
-0.30926067 -0.31693783 0.87256145 0 224 255 0.34715542
0.13608696 0.036445294 -0.7111155 218 255 38 0.5885214
0.28245863 0.06070524 -0.51399076 14 255 242 0.38994622
0.21341425 -0.32243946 0.75956494 128 0 0 1.0
-0.1065531 0.15928791 0.7615951 128 0 0 1.0
-0.20964262 0.15928791 0.45163622 0 40 255 0.1674741
0.17865859 0.15928791 -0.6178518 0 0 160 0.03193348
-0.049425498 0.15928791 0.3282252 0 0 128 0.0
0.059632596 0.06070524 0.61260444 0 0 128 0.0
-0.19238661 -0.3751008 0.7766991 22 255 234 0.3991267
0.2343448 -0.2933275 0.7515054 218 255 38 0.5919334
-0.36925074 -0.19419673 0.8170173 0 56 255 0.18277796
-0.36925074 0.010500358 0.8642989 74 255 182 0.4476627
-0.0035041654 0.15928791 -0.12274587 50 255 206 0.42436424
0.027110055 0.06070524 0.25530326 0 0 128 0.0
0.39480552 0.14651844 0.63854945 0 0 128 0.0
0.28245863 0.06070524 -0.51399076 206 255 50 0.577754
-0.22206697 0.15928791 -0.3405778 0 0 128 0.0
-0.31833532 -0.14638738 -0.7159878 58 255 198 0.4334851
0.025749877 -0.39978707 -0.83799803 128 0 0 1.0
-0.03714327 -0.07462261 0.72062725 0 0 128 0.0
0.2546663 0.07077464 0.89787704 0 248 255 0.37166134
0.3222693 -0.13018702 0.7236521 0 44 255 0.17000882
0.39480552 0.12079682 -0.5767824 0 228 255 0.352613
-0.09697093 0.06070524 -0.1331807 220 0 0 0.9136382
-0.09287009 0.15928791 -0.37821624 86 255 170 0.46111363
-0.32245648 0.06070524 -0.68728185 0 132 255 0.25745884
-0.36925074 0.08080345 0.37154797 70 255 186 0.4468702
0.23704486 0.06070524 0.009293196 0 0 128 0.0
0.006788546 0.15928791 -0.5287092 254 255 1 0.62483525
0.23373577 -0.42843208 0.82517844 178 255 78 0.5500633
0.04674132 -0.4175912 -0.78401715 128 0 0 1.0
0.105188504 0.15928791 0.3819828 0 0 128 0.0
0.08261356 -0.035157062 -0.8887917 0 244 255 0.3650026
0.1771969 0.06070524 0.51438725 0 0 128 0.0
-0.3196143 0.15928791 -0.25019684 0 0 128 0.0
-0.36925074 0.1256082 0.7971628 74 255 182 0.44776836
0.19376267 -0.23106372 0.88945204 255 168 0 0.71358746
-0.29511073 -0.22594781 -0.72737676 0 144 255 0.27032772
-0.10068606 -0.40088332 0.8466571 86 255 170 0.46120003
-0.113881834 -0.23386529 -0.7289197 0 128 255 0.25144303
0.25387454 0.06070524 0.56174994 0 0 128 0.0
-0.31143293 0.032182045 0.89787704 128 0 0 1.0
-0.21585481 -0.17547901 0.8954815 0 200 255 0.32296136
-0.36925074 -0.34730846 -0.76692355 0 160 255 0.28526613
-0.36925074 -0.0727346 -0.81773746 0 84 255 0.21006425
0.09252055 0.15928791 -0.5845375 62 255 194 0.4376326
0.042884093 0.15928791 0.46064997 0 0 128 0.0
-0.19884239 0.15928791 -0.73639053 198 255 58 0.5698092
0.38120374 -0.29765168 -0.86806417 128 0 0 1.0
-0.11471418 0.15928791 0.8604417 0 56 255 0.18041076
-0.36925074 -0.1517469 0.8340703 0 172 255 0.29560542
-0.29257306 -0.06229978 0.7204039 0 116 255 0.24182789
-0.35272557 -0.32974792 -0.75269234 255 196 0 0.68579763
0.22198136 0.11103194 0.89787704 255 184 0 0.6979253
-0.10117328 0.15928791 -0.6174254 206 255 50 0.5783027
-0.3654341 0.1589428 -0.8747433 30 255 226 0.40394625
-0.2478901 0.15928791 -0.36891833 234 255 22 0.6069432
0.36748013 0.06070524 -0.48051405 0 204 255 0.32569757
0.17163436 0.15928791 0.85203695 244 0 0 0.8901168
0.20157865 0.06070524 -0.04694115 0 0 160 0.032314487
-0.081826225 0.06070524 0.344791 0 0 128 0.0
0.061033376 0.15928791 -0.025848197 98 255 158 0.47248402
0.18840317 -0.31967852 0.7587123 50 255 206 0.42549658
-0.07654791 0.15928791 0.27160513 0 0 128 0.0
-0.16810636 0.15928791 -0.4159156 0 212 255 0.33588985
-0.19774611 -0.15446727 0.72590554 0 0 252 0.1245585
-0.36925074 -0.17296167 0.8662275 0 148 255 0.2730911
0.02463331 -0.131466 0.7237739 0 0 140 0.012168531
-0.24135312 0.06070524 0.54199684 0 224 255 0.34628904
0.14114195 0.15928791 -0.42965952 255 188 0 0.69324374
-0.36925074 -0.41030312 -0.7998318 134 255 122 0.5089713
0.367338 -0.07263309 -0.8887917 0 252 255 0.37331387
-0.36925074 0.13959573 0.011465426 0 0 240 0.112362295
0.1334478 -0.11607768 -0.8887511 240 0 0 0.89097106
-0.04420809 0.15928791 -0.28010052 0 76 255 0.20391533
0.28865054 0.15928791 -0.8083583 70 255 186 0.44522265
-0.34097117 -0.2563793 -0.8764079 128 0 0 1.0
0.2396637 0.06070524 -0.43363854 0 72 255 0.19827919
-0.28682783 0.15928791 0.5855024 62 255 194 0.43600968
0.31546843 0.15928791 -0.06308061 0 0 128 0.0
-0.3417426 0.06070524 0.16904339 0 8 255 0.13676716
-0.028271642 0.15640512 -0.880996 220 0 0 0.91275054
0.36989594 -0.16475998 0.89623266 255 136 0 0.743284
0.1975184 0.06070524 0.117052004 0 0 156 0.030822167
0.06568235 0.06070524 -0.42381275 94 255 162 0.46753573
0.24406908 0.06070524 0.034974225 0 0 128 0.0
-0.28020963 0.15928791 0.46211165 0 136 255 0.26136914
-0.3599731 0.15928791 -0.10451538 0 0 168 0.040587705
0.33670345 0.06070524 0.6277695 0 0 128 0.0
0.059652895 0.06070524 -0.6792832 62 255 194 0.43553817
-0.26149195 0.031877536 -0.8887917 0 240 255 0.36195967
0.16134165 0.06070524 0.16607943 0 0 128 0.0
0.042538974 0.15928791 -0.10500261 246 255 10 0.61734694
0.24406908 0.06070524 0.034974225 0 0 128 0.0
-0.36925074 0.13419564 -0.63953346 0 156 255 0.27986705
0.061053675 -0.14884384 -0.887939 0 252 255 0.3746845
-0.26193854 -0.026894467 -0.8887917 0 84 255 0.21016148
0.38954753 0.06070524 -0.63784844 66 255 190 0.4416524
-0.36925074 0.047793683 -0.76818216 218 255 38 0.5885693
-0.3332973 -0.40094423 -0.7773786 128 0 0 1.0
-0.078354724 0.06070524 0.07039983 0 212 255 0.337009
0.39480552 -0.27487373 -0.82472104 255 232 0 0.6493232
-0.30181015 0.15928791 0.76811177 0 48 255 0.17383967
-0.099569485 0.15928791 -0.061050493 118 255 138 0.4940729
0.1321688 0.15928791 0.23597649 0 0 128 0.0
0.35452792 0.06070524 0.13840888 0 0 128 0.0
0.15076472 0.15928791 -0.20021528 0 0 128 0.0
-0.29206556 0.06070524 0.6786646 128 0 0 1.0
0.13986297 0.15928791 0.029310187 0 68 255 0.19510353
-0.19238661 -0.3751008 0.7766991 136 0 0 0.9940703
0.26290858 0.15928791 -0.22220148 0 0 128 0.0
-0.27489072 0.06070524 0.7099285 0 24 255 0.15104225
0.38841066 0.06070524 0.14470226 0 0 128 0.0
0.059795 -0.32404327 -0.7509668 255 156 0 0.7227885
-0.13383791 0.15928791 -0.17857419 0 32 255 0.15977071
0.067265846 -0.033837486 -0.7111155 128 0 0 1.0
0.39480552 -0.058198933 -0.7959948 0 140 255 0.2655394
0.080015 0.09152247 0.89787704 0 0 244 0.11544888
-0.36925074 0.13959573 0.011465426 0 84 255 0.20969312
0.39480552 -0.17759034 -0.79473615 255 164 0 0.71733624
-0.35319248 0.15928791 -0.13460177 0 216 255 0.33740696
-0.10101087 0.15928791 0.27312773 0 0 128 0.0
-0.27491102 0.06070524 0.6318703 230 255 26 0.60194534
0.36938843 0.15928791 -0.3070402 0 204 255 0.32921907
0.2867625 0.07733193 -0.8887917 0 104 255 0.22974364
0.0108893905 -0.24044289 0.73928404 0 16 255 0.1445468
0.029079273 0.15928791 -0.046555426 128 0 0 1.0
0.15332267 0.15928791 -0.86252195 218 255 38 0.59024596
-0.29237005 -0.30414808 -0.74532306 0 152 255 0.27624577
0.087100126 -0.3912809 -0.84114474 212 0 0 0.91879064
0.39480552 0.107195005 -0.70047766 0 0 128 0.0
-0.06635671 0.15928791 0.5328816 14 255 242 0.39079678
0.24492173 0.15928791 -0.35143894 0 40 255 0.16512911
0.24037425 0.06070524 0.36425984 0 0 128 0.0
-0.08085177 -0.23130734 0.73751783 0 168 255 0.29260015
0.16308756 0.15928791 0.7246062 0 124 255 0.24903448
-0.36925074 0.0834223 0.7976094 0 96 255 0.22116691
0.3573701 -0.32718992 -0.7519209 128 0 0 1.0
0.36007014 -0.23479915 -0.87979823 150 255 106 0.5238299
0.044873614 0.12899852 0.89787704 6 255 250 0.38372865
-0.06635671 0.15928791 0.5328816 0 0 128 0.0
-0.31196073 -0.39921865 -0.7767087 206 255 50 0.57918143
-0.3061952 -0.17848359 -0.71978414 0 100 255 0.22564135
-0.3417426 0.06070524 0.16904339 126 255 130 0.5013469
0.3473413 -0.24127524 -0.87880343 94 255 162 0.46805128
-0.09169262 -0.40981588 -0.83428293 128 0 0 1.0
-0.18347438 0.15928791 -0.45134118 255 56 0 0.82327104
0.28245863 0.06070524 -0.51399076 0 36 255 0.16469835
-0.0003574789 -0.16275015 -0.71783525 0 0 208 0.07934225
-0.264395 0.013667337 -0.7111155 50 255 206 0.42466366
-0.28018934 0.15928791 0.70347273 0 236 255 0.35982922
0.11048711 0.15928791 -0.65212023 214 255 42 0.58696175
0.14987147 -0.08471231 0.89787704 0 0 236 0.10977875
0.39480552 0.12662326 0.21896407 0 0 128 0.0
-0.28814742 -0.05740718 -0.8887917 0 212 255 0.3340037
0.09706802 -0.2964945 -0.74327266 166 255 90 0.54077595
0.32129484 0.06070524 -0.029725725 0 0 128 0.0
-0.29746568 0.06070524 -0.22274962 0 0 128 0.0
-0.27872765 -0.096832134 0.72145957 0 40 255 0.1651619
-0.22842124 -0.17302257 -0.71909386 146 255 110 0.51934516
-0.046319414 -0.14857991 0.7252762 128 0 0 1.0
0.3438698 -0.2893079 0.7504294 128 0 0 1.0
0.22792962 0.15928791 -0.5554052 196 0 0 0.93528384
-0.13050851 -0.17545871 -0.8863961 0 0 128 0.0
-0.36925074 0.11570123 0.24529473 128 0 0 1.0
-0.3097073 -0.22552149 -0.8812193 0 252 255 0.37451366
-0.2709523 0.15928791 0.32388073 255 244 0 0.6358745
0.32161966 0.15928791 0.85581297 255 128 0 0.74986464
0.39480552 0.12849098 -0.20908691 0 0 184 0.057810515
-0.18623534 -0.03694357 -0.7111155 128 0 0 1.0
-0.14486147 -0.19289744 -0.8849141 128 0 0 1.0
0.051491804 0.15928791 0.8784488 10 255 246 0.38479546
-0.14088245 0.06070524 -0.67294925 128 0 0 1.0
-0.36925074 0.10888001 0.1268372 26 255 230 0.4003645
-0.09169262 -0.40981588 -0.83428293 128 0 0 1.0
-0.27606818 0.06070524 0.19730268 0 88 255 0.21418223
-0.36925074 -0.13871352 0.73124474 0 0 208 0.07897128
-0.08598798 -0.18463485 0.89471006 178 255 78 0.5505577
-0.36925074 0.06931295 -0.8707236 114 255 142 0.4899245
-0.035580073 0.06988139 -0.8887917 188 0 0 0.94264174
0.22198136 0.11103194 0.89787704 0 248 255 0.3725212
0.32425883 0.06070524 0.293165 0 0 128 0.0
-0.18978804 0.15928791 0.004522412 172 0 0 0.9569565
0.05662801 0.15928791 0.386713 0 0 128 0.0
-0.0012710335 0.06070524 -0.59543926 255 52 0 0.8265713
-0.16264534 0.15928791 -0.8482705 255 64 0 0.81210446
-0.0965446 0.15928791 -0.1551669 128 0 0 1.0
0.046619516 -0.13741425 0.897471 0 0 204 0.07461579
0.39480552 0.12124345 -0.772953 0 0 176 0.050624542
-0.31019452 0.15035538 0.89570487 54 255 202 0.42933953
0.016857946 0.15928791 0.21715727 0 0 204 0.076459356
-0.03221007 -0.17992498 -0.7199465 0 0 192 0.065074965
0.021446018 0.06070524 0.6367629 0 0 128 0.0
-0.20964262 0.15928791 0.45163622 0 24 255 0.15283641
0.001165112 -0.105236836 0.7219062 0 0 128 0.0
